ply 
format ascii 1.0 
element vertex 418
property double x 
property double y
property double z 
property double nx
property double ny
property double nz
end_header
-2.669873329470461 31.010257319662674 -17.467239721867401 11.789720688536807 -19.829917432163725 22.467239721867401
-2.187769674825001 31.010257319662674 -18.343353907449103 11.307617033891347 -19.829917432163725 23.343353907449103
-6.201777045397460 31.694047575944182 -12.562335336781434 15.321624404463806 -20.513707688445233 17.562335336781434
-5.719673390752002 31.694047575944182 -13.438449522363140 14.839520749818348 -20.513707688445233 18.438449522363140
-5.237569736106542 31.694047575944182 -14.314563707944842 14.357417095172888 -20.513707688445233 19.314563707944842
-4.755466081461085 31.694047575944182 -15.190677893526548 13.875313440527432 -20.513707688445233 20.190677893526548
22.890872047146665 -5.596202344426551 20.584647713704211 -11.953751209359227 17.843651058342441 -14.584647713704211
23.856567255602030 -5.596202344426551 18.833238919514134 -12.919446417814592 17.843651058342441 -12.833238919514134
25.305110068285085 -5.596202344426551 16.206125728229019 -14.367989230497647 17.843651058342441 -10.206125728229019
18.897591439994756 -4.882456302092852 26.376389816007926 -7.960470602207318 17.129905016008742 -20.376389816007926
21.311829461133176 -4.882456302092852 21.997867830532734 -10.374708623345738 17.129905016008742 -15.997867830532734
21.794677065360858 -4.882456302092852 21.122163433437692 -10.857556227573420 17.129905016008742 -15.122163433437692
24.208915086499282 -4.882456302092852 16.743641447962496 -13.271794248711844 17.129905016008742 -10.743641447962496
18.767091666664317 -4.168710259759155 25.162496741551330 -7.829970828876879 16.416158973675046 -19.162496741551330
19.249939270892000 -4.168710259759155 24.286792344456291 -8.312818433104562 16.416158973675046 -18.286792344456291
19.732786875119686 -4.168710259759155 23.411087947361253 -8.795666037332248 16.416158973675046 -17.411087947361253
20.215634479347372 -4.168710259759155 22.535383550266214 -9.278513641559934 16.416158973675046 -16.535383550266214
24.561262917396526 -4.168710259759155 14.654043976410863 -13.624142079609088 16.416158973675046 -8.654043976410863
25.044110521624212 -4.168710259759155 13.778339579315823 -14.106989683836774 16.416158973675046 -7.778339579315823
25.526958125851898 -4.168710259759155 12.902635182220784 -14.589837288064460 16.416158973675046 -6.902635182220784
26.009805730079581 -4.168710259759155 12.026930785125746 -15.072684892292143 16.416158973675046 -6.026930785125746
17.188049080650828 -3.454964217425458 26.575716858379852 -6.250928242863390 15.702412931341348 -20.575716858379852
17.670896684878514 -3.454964217425458 25.700012461284810 -6.733775847091076 15.702412931341348 -19.700012461284810
25.879305956749143 -3.454964217425458 10.813037710669150 -14.942185118961705 15.702412931341348 -4.813037710669150
29.259239186342931 -3.454964217425458 4.683106931003876 -18.322118348555492 15.702412931341348 1.316893068996124
16.091854098865024 -2.741218175091760 27.113232578113333 -5.154733261077586 14.988666889007650 -21.113232578113333
16.574701703092707 -2.741218175091760 26.237528181018295 -5.637580865305269 14.988666889007650 -20.237528181018295
17.057549307320393 -2.741218175091760 25.361823783923253 -6.120428469532955 14.988666889007650 -19.361823783923253
25.748806183418708 -2.741218175091760 9.599144636212552 -14.811685345631270 14.988666889007650 -3.599144636212552
28.163044204557131 -2.741218175091760 5.220622650737357 -17.225923366769692 14.988666889007650 0.779377349262643
31.542977434150920 -2.741218175091760 -0.909308128927916 -20.605856596363481 14.988666889007650 6.909308128927916
30.929630056592799 -2.027472132758064 -1.247496806289472 -19.992509218805360 14.274920846673954 7.247496806289472
11.707074171721805 0.113765994243030 29.263295457047256 -0.769953333934367 12.133682719672860 -23.263295457047256
30.055283132373802 0.113765994243030 -4.013471632564224 -19.118162294586362 12.133682719672860 10.013471632564224
10.610879189936002 0.827512036576728 29.800811176780741 0.326241647851436 11.419936677339162 -23.800811176780741
30.407630963271053 0.827512036576728 -6.103069104115859 -19.470510125483614 11.419936677339162 12.103069104115859
9.031836603922512 1.541258078910426 31.214031293609260 1.905284233864926 10.706190635005465 -25.214031293609260
28.828588377257560 1.541258078910426 -4.689848987287339 -17.891467539470121 10.706190635005465 10.689848987287339
30.277131189940611 1.541258078910426 -7.316962178572455 -19.340010352153172 10.706190635005465 13.316962178572455
29.663783812382491 2.255004121244124 -7.655150855934012 -18.726662974595051 9.992444592671767 13.655150855934012
8.770837057261641 2.968750163577822 28.786245144696068 2.166283780525797 9.278698550338069 -22.786245144696068
29.050436434824370 2.968750163577822 -7.993339533295570 -18.113315597036930 9.278698550338069 13.993339533295570
7.674642075475835 3.682496205911519 29.323760864429545 3.262478762311603 8.564952508004371 -23.323760864429545
28.437089057266249 3.682496205911519 -8.331528210657128 -17.499968219478809 8.564952508004371 14.331528210657128
6.578447093690030 4.396242248245216 29.861276584163033 4.358673744097408 7.851206465670674 -23.861276584163033
7.061294697917714 4.396242248245216 28.985572187067991 3.875826139869724 7.851206465670674 -22.985572187067991
27.823741679708128 4.396242248245216 -8.669716888018685 -16.886620841920688 7.851206465670674 14.669716888018685
27.210394302150014 5.109988290578913 -9.007905565380241 -16.273273464362575 7.137460423336977 15.007905565380241
5.351752338573789 5.823734332912611 29.184899229439917 5.585368499213649 6.423714381003279 -23.184899229439917
26.114199320364207 5.823734332912611 -8.470389845646761 -15.177078482576770 6.423714381003279 14.470389845646761
3.642209979229863 7.251226417580007 29.384226271811841 7.294910858557575 4.996222296335883 -23.384226271811841
3.028862601671742 7.964972459913705 29.046037594450283 7.908258236115696 4.282476254002185 -23.046037594450283
24.274157187689845 7.964972459913705 -9.484955877731434 -13.337036349902407 4.282476254002185 15.484955877731434
2.898362828341307 8.678718502247403 27.832144519993687 8.038758009446131 3.568730211668488 -21.832144519993687
23.660809810131724 8.678718502247403 -9.823144555092991 -12.723688972344286 3.568730211668488 15.823144555092991
1.802167846555500 9.392464544581099 28.369660239727168 9.134952991231938 2.854984169334791 -22.369660239727168
23.530310036801289 9.392464544581099 -11.037037629549587 -12.593189199013851 2.854984169334791 17.037037629549587
1.188820468997381 10.106210586914798 28.031471562365610 9.748300368790057 2.141238127001092 -22.031471562365610
22.916962659243168 10.106210586914798 -11.375226306911145 -11.979841821455731 2.141238127001092 17.375226306911145
0.575473091439260 10.819956629248495 27.693282885004052 10.361647746348178 1.427492084667396 -21.693282885004052
-0.037874286118861 11.533702671582192 27.355094207642495 10.974995123906298 0.713746042333698 -21.355094207642495
-1.395068814565539 13.674940798583286 25.464823778462783 12.332189652352977 -1.427492084667396 -19.464823778462783
-2.491263796351344 14.388686840916982 26.002339498196264 13.428384634138782 -2.141238127001092 -20.002339498196264
-2.138915965454094 15.102432883250682 23.912742026644626 13.076036803241532 -2.854984169334791 -17.912742026644626
-3.848458324798020 16.529924967918078 24.112069069016552 14.785579162585458 -4.282476254002187 -18.112069069016552
-3.978958098128457 17.243671010251774 22.898175994559953 14.916078935915895 -4.996222296335883 -16.898175994559953
-3.496110493900773 17.243671010251774 22.022471597464914 14.433231331688210 -4.996222296335883 -16.022471597464914
20.032922339925314 17.957417052585470 -22.100936934648594 -9.095801502137876 -5.709968338669579 28.100936934648594
-4.722805249017014 18.671163094919169 21.346094242741799 15.659926086804452 -6.423714381003279 -15.346094242741799
-4.239957644789332 18.671163094919169 20.470389845646761 15.177078482576770 -6.423714381003279 -14.470389845646761
18.936727358139507 18.671163094919169 -21.563421214915110 -7.999606520352069 -6.423714381003279 27.563421214915110
19.419574962367193 18.671163094919169 -22.439125612010152 -8.482454124579755 -6.423714381003279 28.439125612010152
-4.853305022347453 19.384909137252869 20.132201168285203 15.790425860134890 -7.137460423336979 -14.132201168285203
18.806227584809072 19.384909137252869 -22.777314289371709 -7.869106747021634 -7.137460423336979 28.777314289371709
-5.466652399905572 20.098655179586565 19.794012490923649 16.403773237693009 -7.851206465670675 -13.794012490923649
-4.983804795677889 20.098655179586565 18.918308093828607 15.920925633465327 -7.851206465670675 -12.918308093828607
18.192880207250951 20.098655179586565 -23.115502966733267 -7.255759369463513 -7.851206465670675 29.115502966733267
-5.597152173236010 20.812401221920261 18.580119416467049 16.534273011023448 -8.564952508004371 -12.580119416467049
17.096685225465144 20.812401221920261 -22.577987246999783 -6.159564387677706 -8.564952508004371 28.577987246999783
17.579532829692830 20.812401221920261 -23.453691644094825 -6.642411991905393 -8.564952508004371 29.453691644094825
-5.727651946566445 21.526147264253957 17.366226342010457 16.664772784353882 -9.278698550338067 -11.366226342010457
16.966185452134710 21.526147264253957 -23.791880321456382 -6.029064614347272 -9.278698550338067 29.791880321456382
-5.858151719896883 22.239893306587657 16.152333267553857 16.795272557684321 -9.992444592671767 -10.152333267553857
16.352838074576589 22.239893306587657 -24.130068998817940 -5.415717236789151 -9.992444592671767 30.130068998817940
-5.988651493227318 22.953639348921357 14.938440193097261 16.925772331014755 -10.706190635005466 -8.938440193097261
15.256643092790783 22.953639348921357 -23.592553279084456 -4.319522255003346 -10.706190635005466 29.592553279084456
-6.601998870785438 23.667385391255053 14.600251515735703 17.539119708572876 -11.419936677339162 -8.600251515735703
14.160448111004980 23.667385391255053 -23.055037559350971 -3.223327273217542 -11.419936677339162 29.055037559350971
-6.732498644115873 24.381131433588749 13.386358441279107 17.669619481903311 -12.133682719672858 -7.386358441279107
-6.249651039888191 24.381131433588749 12.510654044184067 17.186771877675628 -12.133682719672858 -6.510654044184067
14.029948337674542 24.381131433588749 -24.268930633807571 -3.092827499887104 -12.133682719672858 30.268930633807571
-6.380150813218629 25.094877475922448 11.296760969727471 17.317271651006067 -12.847428762006558 -5.296760969727471
12.450905751661054 25.094877475922448 -22.855710516979052 -1.513784913873616 -12.847428762006558 28.855710516979052
-6.993498190776750 25.808623518256148 10.958572292365913 17.930619028564188 -13.561174804340258 -4.958572292365913
12.320405978330617 25.808623518256148 -24.069603591435644 -1.383285140543180 -13.561174804340258 30.069603591435644
-7.123997964107184 26.522369560589844 9.744679217909317 18.061118801894622 -14.274920846673954 -3.744679217909317
11.224210996544812 26.522369560589844 -23.532087871702167 -0.287090158757374 -14.274920846673954 29.532087871702167
-7.254497737437619 27.236115602923540 8.530786143452719 18.191618575225057 -14.988666889007650 -2.530786143452719
10.128016014759009 27.236115602923540 -22.994572151968683 0.809104823028429 -14.988666889007650 28.994572151968683
-7.384997510768057 27.949861645257236 7.316893068996124 18.322118348555495 -15.702412931341346 -1.316893068996124
9.031821032973204 27.949861645257236 -22.457056432235202 1.905299804814234 -15.702412931341346 28.457056432235202
-7.998344888326178 28.663607687590936 6.978704391634566 18.935465726113616 -16.416158973675046 -0.978704391634566
-7.515497284098496 28.663607687590936 6.102999994539528 18.452618121885934 -16.416158973675046 -0.102999994539528
-7.032649679870810 28.663607687590936 5.227295597444488 17.969770517658247 -16.416158973675046 0.772704402555512
7.935626051187398 28.663607687590936 -21.919540712501721 3.001494786600039 -16.416158973675046 27.919540712501721
-7.163149453201244 29.377353729924632 4.013402522987892 18.100270290988682 -17.129905016008742 1.986597477012108
-6.680301848973562 29.377353729924632 3.137698125892854 17.617422686761000 -17.129905016008742 2.862301874107146
-6.197454244745879 29.377353729924632 2.261993728797814 17.134575082533317 -17.129905016008742 3.738006271202186
-5.714606640518193 29.377353729924632 1.386289331702775 16.651727478305631 -17.129905016008742 4.613710668297225
6.839431069401593 29.377353729924632 -21.382024992768237 4.097689768385845 -17.129905016008742 27.382024992768237
5.743236087615788 30.091099772258332 -20.844509273034756 5.193884750171650 -17.843651058342441 26.844509273034756
6.226083691843472 30.091099772258332 -21.720213670129795 4.711037145943965 -17.843651058342441 27.720213670129795
-6.941301395634435 30.804845814592028 0.709911976979660 17.878422233421873 -18.557397100676138 5.290088023020340
-6.458453791406752 30.804845814592028 -0.165792420115379 17.395574629194190 -18.557397100676138 6.165792420115379
-5.975606187179066 30.804845814592028 -1.041496817210418 16.912727024966504 -18.557397100676138 7.041496817210418
-5.009910978723699 30.804845814592028 -2.792905611400496 15.947031816511137 -18.557397100676138 8.792905611400496
4.164193501602300 30.804845814592028 -19.431289156206237 6.772927336185138 -18.557397100676138 25.431289156206237
4.647041105829985 30.804845814592028 -20.306993553301275 6.290079731957453 -18.557397100676138 26.306993553301275
-6.106105960509501 31.518591856925728 -2.255389891667015 17.043226798296939 -19.271143143009837 8.255389891667015
-5.140410752054136 31.518591856925728 -4.006798685857092 16.077531589841573 -19.271143143009837 10.006798685857092
-4.657563147826449 31.518591856925728 -4.882503082952132 15.594683985613887 -19.271143143009837 10.882503082952132
2.102303311361128 31.518591856925728 -17.142364642282679 8.834817526426310 -19.271143143009837 23.142364642282679
2.585150915588812 31.518591856925728 -18.018069039377714 8.351969922198625 -19.271143143009837 24.018069039377714
3.067998519816497 31.518591856925728 -18.893773436472756 7.869122317970941 -19.271143143009837 24.893773436472756
-4.788062921156886 32.232337899259420 -6.096396157408728 15.725183758944324 -19.984889185343530 12.096396157408728
-4.305215316929202 32.232337899259420 -6.972100554503767 15.242336154716639 -19.984889185343530 12.972100554503767
-3.822367712701519 32.232337899259420 -7.847804951598807 14.759488550488957 -19.984889185343530 13.847804951598807
-2.856672504246150 32.232337899259420 -9.599213745788884 13.793793342033588 -19.984889185343530 15.599213745788884
-0.442434483107730 32.232337899259420 -13.977735731264080 11.379555320895168 -19.984889185343530 19.977735731264080
0.523260725347638 32.232337899259420 -15.729144525454156 10.413860112439799 -19.984889185343530 21.729144525454156
1.006108329575323 32.232337899259420 -16.604848922549195 9.931012508212115 -19.984889185343530 22.604848922549195
2.937498746486060 32.232337899259420 -20.107666510929352 7.999622091301378 -19.984889185343530 26.107666510929352
-2.987172277576587 32.946083941593123 -10.813106820245480 13.924293115364025 -20.698635227677233 16.813106820245480
-2.504324673348902 32.946083941593123 -11.688811217340522 13.441445511136340 -20.698635227677233 17.688811217340522
-2.021477069121218 32.946083941593123 -12.564515614435557 12.958597906908656 -20.698635227677233 18.564515614435557
-1.538629464893534 32.946083941593123 -13.440220011530599 12.475750302680972 -20.698635227677233 19.440220011530599
-1.055781860665851 32.946083941593123 -14.315924408625637 11.992902698453289 -20.698635227677233 20.315924408625637
22.563413186441579 -4.491933819302062 22.706326385534929 -9.812667533230794 17.720690374625015 -15.706326385534929
23.047130565214040 -4.491933819302062 21.831102130001810 -10.296384912003255 17.720690374625015 -14.831102130001810
23.530847943986494 -4.491933819302062 20.955877874468690 -10.780102290775709 17.720690374625015 -13.955877874468690
24.498282701531409 -4.491933819302062 19.205429363402452 -11.747537048320623 17.720690374625015 -12.205429363402452
24.982000080303870 -4.491933819302062 18.330205107869332 -12.231254427093084 17.720690374625015 -11.330205107869332
25.949434837848784 -4.491933819302062 16.579756596803094 -13.198689184637999 17.720690374625015 -9.579756596803094
26.433152216621242 -4.491933819302062 15.704532341269976 -13.682406563410456 17.720690374625015 -8.704532341269976
21.973158022183959 -3.753571720359350 22.380105215295895 -9.222412368973174 16.982328275682303 -15.380105215295895
23.424310158501331 -3.753571720359350 19.754432448696537 -10.673564505290546 16.982328275682303 -12.754432448696537
24.875462294818703 -3.753571720359350 17.128759682097179 -12.124716641607918 16.982328275682303 -10.128759682097179
26.326614431136079 -3.753571720359350 14.503086915497821 -13.575868777925294 16.982328275682303 -7.503086915497821
27.777766567453451 -3.753571720359350 11.877414148898465 -15.027020914242666 16.982328275682303 -4.877414148898465
20.415468100381421 -3.015209621416641 23.804332556123097 -7.664722447170636 16.243966176739594 -16.804332556123097
20.899185479153878 -3.015209621416641 22.929108300589977 -8.148439825943093 16.243966176739594 -15.929108300589977
26.220076645650913 -3.015209621416641 13.301641489725668 -13.469330992440128 16.243966176739594 -6.301641489725668
18.374060799806429 -2.276847522473934 26.103784152483421 -5.623315146595644 15.505604077796887 -19.103784152483421
18.857778178578883 -2.276847522473934 25.228559896950301 -6.107032525368098 15.505604077796887 -18.228559896950301
19.341495557351344 -2.276847522473934 24.353335641417182 -6.590749904140559 15.505604077796887 -17.353335641417182
28.532125754028037 -2.276847522473934 7.724074786287916 -15.781380100817252 15.505604077796887 -0.724074786287916
29.015843132800494 -2.276847522473934 6.848850530754797 -16.265097479589709 15.505604077796887 0.151149469245203
29.983277890345409 -2.276847522473934 5.098402019688559 -17.232532237134624 15.505604077796887 1.901597980311441
30.466995269117866 -2.276847522473934 4.223177764155440 -17.716249615907081 15.505604077796887 2.776822235844560
26.974435832225502 -1.538485423531224 9.148302127115119 -14.223690179014717 14.767241978854177 -2.148302127115119
28.909305347315332 -1.538485423531224 5.647405104982641 -16.158559694104547 14.767241978854177 1.352594895017359
29.876740104860247 -1.538485423531224 3.896956593916403 -17.125994451649461 14.767241978854177 3.103043406083597
31.327892241177619 -1.538485423531224 1.271283827317045 -18.577146587966833 14.767241978854177 5.728716172682955
32.295326998722530 -1.538485423531224 -0.479164683749193 -19.544581345511745 14.767241978854177 7.479164683749193
26.384180667967879 -0.800123324588515 8.822080956876082 -13.633435014757094 14.028879879911468 -1.822080956876082
14.668425791943733 -0.061761225645807 28.626017663898789 -1.917680138732948 13.290517780968759 -21.626017663898789
15.152143170716190 -0.061761225645807 27.750793408365670 -2.401397517505405 13.290517780968759 -20.750793408365670
13.594453248913654 0.676600873296902 29.175020749192871 -0.843707595702869 12.552155682026051 -22.175020749192871
14.078170627686111 0.676600873296902 28.299796493659755 -1.327424974475326 12.552155682026051 -21.299796493659755
12.520480705883575 1.414962972239611 29.724023834486957 0.230264947327210 11.813793583083342 -22.724023834486957
13.004198084656032 1.414962972239611 28.848799578953837 -0.253452431445247 11.813793583083342 -21.848799578953837
30.901741099236965 1.414962972239611 -3.534497875771574 -18.150995446026180 11.813793583083342 10.534497875771574
30.311485934979345 2.153325071182319 -3.860719046010610 -17.560740281768560 11.075431484140633 10.860719046010610
10.265997834338254 3.630049269067737 29.620584579302967 2.484747818872531 9.598707286255216 -22.620584579302967
30.582127742781474 3.630049269067737 -7.138834153088037 -17.831382089570688 9.598707286255216 14.138834153088037
29.991872578523854 4.368411368010445 -7.465055323327073 -17.241126925313068 8.860345187312507 14.465055323327073
8.601770127050553 5.106773466953156 29.843366494358015 4.148975526160232 8.121983088369797 -22.843366494358015
29.401617414266230 5.106773466953156 -7.791276493566109 -16.650871761055445 8.121983088369797 14.791276493566109
28.811362250008607 5.845135565895864 -8.117497663805146 -16.060616596797821 7.383620989427088 15.117497663805146
28.221107085750987 6.583497664838573 -8.443718834044180 -15.470361432540201 6.645258890484380 15.443718834044180
5.863569876732773 7.321859763781282 30.615151494707145 6.887175776478013 5.906896791541671 -23.615151494707145
27.630851921493367 7.321859763781282 -8.769940004283217 -14.880106268282582 5.906896791541671 15.769940004283217
5.273314712475151 8.060221862723990 30.288930324468112 7.477430940735634 5.168534692598962 -23.288930324468112
4.683059548217530 8.798583961666699 29.962709154229074 8.067686104993255 4.430172593656254 -22.962709154229074
3.609087005187451 9.536946060609409 30.511712239523160 9.141658648023334 3.691810494713543 -23.511712239523160
25.376369049948046 9.536946060609409 -8.873379259467205 -12.625623396737261 3.691810494713543 15.873379259467205
24.786113885690423 10.275308159552118 -9.199600429706241 -12.035368232479637 2.953448395770835 16.199600429706241
24.679576100205260 11.013670258494827 -10.401045855478394 -11.928830446994475 2.215086296828126 17.401045855478394
1.838321512414588 11.752032357437535 29.533048728806051 10.912424140796197 1.476724197885417 -22.533048728806051
24.089320935947640 11.752032357437535 -10.727267025717431 -11.338575282736855 1.476724197885417 17.727267025717431
1.248066348156966 12.490394456380244 29.206827558567017 11.502679305053819 0.738362098942709 -22.206827558567017
23.499065771690017 12.490394456380244 -11.053488195956465 -10.748320118479231 0.738362098942709 18.053488195956465
1.141528562671802 13.228756555322953 28.005382132794860 11.609217090538984 0.000000000000000 -21.005382132794860
-0.629236930101062 15.443842852151079 27.026718622077752 13.379982583311847 -2.215086296828126 -20.026718622077752
-1.219492094358683 16.182204951093787 26.700497451838718 13.970237747569469 -2.953448395770835 -19.700497451838718
-1.916285044101469 17.658929148979205 25.172830855827527 14.667030697312255 -4.430172593656252 -18.172830855827527
-2.022822829586630 18.397291247921913 23.971385430055371 14.773568482797415 -5.168534692598961 -16.971385430055371
-2.613077993844254 19.135653346864622 23.645164259816337 15.363823647055039 -5.906896791541669 -16.645164259816337
-3.203333158101874 19.874015445807331 23.318943089577299 15.954078811312659 -6.645258890484378 -16.318943089577299
20.982535780521005 19.874015445807331 -20.442269687078660 -8.231790127310219 -6.645258890484378 27.442269687078660
-3.793588322359497 20.612377544750039 22.992721919338265 16.544333975570282 -7.383620989427087 -15.992721919338265
-3.309870943587036 20.612377544750039 22.117497663805146 16.060616596797821 -7.383620989427087 -15.117497663805146
20.875997995035846 20.612377544750039 -21.643715112850813 -8.125252341825060 -7.383620989427087 28.643715112850813
-3.900126107844660 21.350739643692748 21.791276493566109 16.650871761055445 -8.121983088369795 -14.791276493566109
-3.416408729072202 21.350739643692748 20.916052238032989 16.167154382282988 -8.121983088369795 -13.916052238032989
20.285742830778222 21.350739643692748 -21.969936283089851 -7.534997177567437 -8.121983088369795 28.969936283089851
-4.490381272102283 22.089101742635460 21.465055323327071 17.241126925313068 -8.860345187312507 -14.465055323327071
-4.006663893329822 22.089101742635460 20.589831067793952 16.757409546540607 -8.860345187312507 -13.589831067793952
19.211770287748141 22.089101742635460 -21.420933197795765 -6.461024634537356 -8.860345187312507 28.420933197795765
19.695487666520599 22.089101742635460 -22.296157453328885 -6.944742013309813 -8.860345187312507 29.296157453328885
-4.113201678814988 22.827463841578169 19.388385642021799 16.863947332025774 -9.598707286255216 -12.388385642021799
-4.703456843072608 23.565825940520877 19.062164471782765 17.454202496283393 -10.337069385197925 -12.062164471782765
-5.293712007330228 24.304188039463586 18.735943301543728 18.044457660541013 -11.075431484140633 -11.735943301543728
17.441004794975278 24.304188039463586 -22.399596708512874 -4.690259141764493 -11.075431484140633 29.399596708512874
16.367032251945197 25.042550138406295 -21.850593623218792 -3.616286598734412 -11.813793583083342 28.850593623218792
16.260494466460035 25.780912237349003 -23.052039048990945 -3.509748813249249 -12.552155682026051 30.052039048990945
14.702804544657498 26.519274336291712 -21.627811708163740 -1.952058891446713 -13.290517780968759 28.627811708163740
-4.752428391725971 27.257636435234421 12.179713087388871 17.503174044936756 -14.028879879911468 -5.179713087388871
14.596266759172336 27.257636435234421 -22.829257133935897 -1.845521105961550 -14.028879879911468 29.829257133935897
-5.826400934756048 27.995998534177129 12.728716172682955 18.577146587966833 -14.767241978854177 -5.728716172682955
-5.342683555983591 27.995998534177129 11.853491917149835 18.093429209194376 -14.767241978854177 -4.853491917149835
-5.932938720241211 28.734360633119842 11.527270746910798 18.683684373451996 -15.505604077796889 -4.527270746910798
-5.449221341468757 28.734360633119842 10.652046491377678 18.199966994679542 -15.505604077796889 -3.652046491377678
-5.555759126953919 29.472722732062547 9.450601065605525 18.306504780164705 -16.243966176739594 -2.450601065605525
12.341783887627013 29.472722732062547 -22.932696389119887 0.408961765583772 -16.243966176739594 29.932696389119887
-5.662296912439082 30.211084831005255 8.249155639833369 18.413042565649867 -16.982328275682303 -1.249155639833369
10.784093965824477 30.211084831005255 -21.508469048292682 1.966651687386308 -16.982328275682303 28.508469048292682
-6.252552076696706 30.949446929947968 7.922934469594334 19.003297729907491 -17.720690374625015 -0.922934469594334
-5.768834697924248 30.949446929947968 7.047710214061215 18.519580351135033 -17.720690374625015 -0.047710214061215
-6.842807240954325 31.687809028890676 7.596713299355297 19.593552894165111 -18.459052473567723 -0.596713299355297
-6.359089862181868 31.687809028890676 6.721489043822179 19.109835515392653 -18.459052473567723 0.278510956177821
-5.391655104636953 31.687809028890676 4.971040532755940 18.142400757847739 -18.459052473567723 2.028959467244060
-4.907937725864493 31.687809028890676 4.095816277222821 17.658683379075278 -18.459052473567723 2.904183722777179
-4.424220347092035 31.687809028890676 3.220592021689701 17.174966000302820 -18.459052473567723 3.779407978310299
-3.940502968319578 31.687809028890676 2.345367766156583 16.691248621530363 -18.459052473567723 4.654632233843417
8.636148879764319 31.687809028890676 -20.410462877704518 4.114596773446467 -18.459052473567723 27.410462877704518
9.119866258536778 31.687809028890676 -21.285687133237637 3.630879394674007 -18.459052473567723 28.285687133237637
-5.981910268894573 32.426171127833385 4.644819362516905 18.732655922105359 -19.197414572510432 2.355180637483095
-5.014475511349659 32.426171127833385 2.894370851450666 17.765221164560444 -19.197414572510432 4.105629148549334
7.078458957961782 32.426171127833385 -18.986235536877313 5.672286695249003 -19.197414572510432 25.986235536877313
7.562176336734240 32.426171127833385 -19.861459792410432 5.188569316476546 -19.197414572510432 26.861459792410432
-4.637295918062364 33.164533226776093 0.817701170145392 17.388041571273149 -19.935776671453141 6.182298829854608
-4.153578539289907 33.164533226776093 -0.057523085387727 16.904324192500692 -19.935776671453141 7.057523085387727
-3.669861160517449 33.164533226776093 -0.932747340920846 16.420606813728234 -19.935776671453141 7.932747340920846
5.520769036159246 33.164533226776093 -17.562008196050112 7.229976617051539 -19.935776671453141 24.562008196050112
6.004486414931703 33.164533226776093 -18.437232451583228 6.746259238279082 -19.935776671453141 25.437232451583228
6.488203793704161 33.164533226776093 -19.312456707116347 6.262541859506625 -19.935776671453141 26.312456707116347
-3.776398946002612 33.902895325718802 -2.134192766693001 16.527144599213397 -20.674138770395849 9.134192766693001
-3.292681567230154 33.902895325718802 -3.009417022226121 16.043427220440940 -20.674138770395849 10.009417022226121
-2.808964188457697 33.902895325718802 -3.884641277759240 15.559709841668482 -20.674138770395849 10.884641277759240
4.446796493129169 33.902895325718802 -17.013005110756026 8.303949160081617 -20.674138770395849 24.013005110756026
4.930513871901626 33.902895325718802 -17.888229366289146 7.820231781309159 -20.674138770395849 24.888229366289146
-2.915501973942863 34.641257424661511 -5.086086703531395 15.666247627153648 -21.412500869338558 12.086086703531395
-2.431784595170404 34.641257424661511 -5.961310959064514 15.182530248381189 -21.412500869338558 12.961310959064514
-1.948067216397947 34.641257424661511 -6.836535214597632 14.698812869608732 -21.412500869338558 13.836535214597632
-1.464349837625489 34.641257424661511 -7.711759470130751 14.215095490836275 -21.412500869338558 14.711759470130751
-0.980632458853032 34.641257424661511 -8.586983725663870 13.731378112063817 -21.412500869338558 15.586983725663870
-0.496915080080575 34.641257424661511 -9.462207981196990 13.247660733291360 -21.412500869338558 16.462207981196990
0.954237056236799 34.641257424661511 -12.087880747796348 11.796508596973986 -21.412500869338558 19.087880747796348
1.437954435009257 34.641257424661511 -12.963105003329467 11.312791218201529 -21.412500869338558 19.963105003329467
1.921671813781714 34.641257424661511 -13.838329258862586 10.829073839429071 -21.412500869338558 20.838329258862586
2.405389192554171 34.641257424661511 -14.713553514395706 10.345356460656614 -21.412500869338558 21.713553514395706
2.889106571326629 34.641257424661511 -15.588777769928825 9.861639081884157 -21.412500869338558 22.588777769928825
3.372823950099086 34.641257424661511 -16.464002025461944 9.377921703111699 -21.412500869338558 23.464002025461944
-0.603452865565735 35.379619523604219 -10.663653406969146 13.354198518776521 -22.150862968281267 17.663653406969146
-0.119735486793278 35.379619523604219 -11.538877662502266 12.870481140004063 -22.150862968281267 18.538877662502266
23.781034642177232 -3.314541148261558 22.256195486078855 -9.220917868676747 17.456676771992509 -14.256195486078855
24.265748470651850 -3.314541148261558 21.381522687550472 -9.705631697151365 17.456676771992509 -13.381522687550472
28.143459098448805 -3.314541148261558 14.384140299323386 -13.583342324948319 17.456676771992509 -6.384140299323386
29.112886755398044 -3.314541148261558 12.634794702266614 -14.552769981897558 17.456676771992509 -4.634794702266614
35.898880354042703 -3.314541148261558 0.389375522869218 -21.338763580542217 17.456676771992509 7.610624477130782
22.242101398424790 -2.555555201653188 23.689940513663810 -7.681984624924304 16.697690825384139 -15.689940513663810
22.726815226899411 -2.555555201653188 22.815267715135423 -8.166698453398926 16.697690825384139 -14.815267715135423
24.180956712323265 -2.555555201653188 20.191249319550266 -9.620839938822780 16.697690825384139 -12.191249319550266
24.665670540797883 -2.555555201653188 19.316576521021883 -10.105553767297398 16.697690825384139 -11.316576521021883
25.150384369272505 -2.555555201653188 18.441903722493496 -10.590267595772019 16.697690825384139 -10.441903722493496
25.635098197747123 -2.555555201653188 17.567230923965113 -11.074981424246637 16.697690825384139 -9.567230923965113
26.119812026221744 -2.555555201653188 16.692558125436726 -11.559695252721259 16.697690825384139 -8.692558125436726
26.604525854696362 -2.555555201653188 15.817885326908341 -12.044409081195877 16.697690825384139 -7.817885326908341
27.089239683170980 -2.555555201653188 14.943212528379956 -12.529122909670495 16.697690825384139 -6.943212528379956
28.058667340120216 -2.555555201653188 13.193866931323184 -13.498550566619731 16.697690825384139 -5.193866931323184
20.218454326197730 -1.796569255044817 25.998358339777148 -5.658337552697244 15.938704878775768 -17.998358339777148
28.458589410266249 -1.796569255044817 11.128920764794596 -13.898472636765764 15.938704878775768 -3.128920764794596
29.428017067215489 -1.796569255044817 9.379575167737826 -14.867900293715003 15.938704878775768 -1.379575167737826
31.366872381113964 -1.796569255044817 5.880883973624284 -16.806755607613479 15.938704878775768 2.119116026375716
31.851586209588586 -1.796569255044817 5.006211175095897 -17.291469436088100 15.938704878775768 2.993788824904103
32.336300038063200 -1.796569255044817 4.131538376567512 -17.776183264562714 15.938704878775768 3.868461623432488
32.821013866537825 -1.796569255044817 3.256865578039127 -18.260897093037340 15.938704878775768 4.743134421960873
34.759869180436297 -1.796569255044817 -0.241825616074415 -20.199752406935811 15.938704878775768 8.241825616074415
19.648948739394527 -1.037583308436448 25.682757770305336 -5.088831965894041 15.179718932167399 -17.682757770305336
31.282080622785379 -1.037583308436448 4.690610605624082 -16.721963849284894 15.179718932167399 3.309389394375918
32.736222108209233 -1.037583308436448 2.066592210038925 -18.176105334708748 15.179718932167399 5.933407789961075
33.705649765158469 -1.037583308436448 0.317246612982155 -19.145532991657984 15.179718932167399 7.682753387017845
17.055796080364260 0.480388584780293 27.675575026946859 -2.495679306863774 13.661747038950658 -19.675575026946859
32.081924763077453 0.480388584780293 0.560718272566907 -17.521807989576967 13.661747038950658 7.439281727433093
15.032149008137200 1.239374531388663 29.983992853060201 -0.472032234636714 12.902761092342288 -21.983992853060201
16.001576665086439 1.239374531388663 28.234647256003427 -1.441459891585954 12.902761092342288 -20.234647256003427
13.977929592859375 1.998360477997032 30.543065082116769 0.582187180641110 12.143775145733919 -22.543065082116769
32.881768903369519 1.998360477997032 -3.569174060490267 -18.321652129869033 12.143775145733919 11.569174060490267
33.366482731844130 1.998360477997032 -4.443846859018651 -18.806365958343644 12.143775145733919 12.443846859018651
32.312263316566309 2.757346424605402 -3.884774629962084 -17.752146543065823 11.384789199125549 11.884774629962084
32.796977145040927 2.757346424605402 -4.759447428490468 -18.236860371540441 11.384789199125549 12.759447428490468
12.354204590778348 3.516332371213771 30.786536741701521 2.205912182722138 10.625803252517180 -22.786536741701521
32.712185386712342 3.516332371213771 -5.949720796490670 -18.152068613211856 10.625803252517180 13.949720796490670
11.784699003975145 4.275318317822142 30.470936172229706 2.775417769525340 9.866817305908809 -22.470936172229706
32.142679799909139 4.275318317822142 -6.265321365962485 -17.582563026408653 9.866817305908809 14.265321365962485
10.730479588697321 5.034304264430512 31.030008401286278 3.829637184803165 9.107831359300439 -23.030008401286278
10.160974001894116 5.793290211038881 30.714407831814459 4.399142771606369 8.348845412692070 -22.714407831814459
31.003668626302730 5.793290211038881 -6.896522504906118 -16.443551852802244 8.348845412692070 14.896522504906118
30.434163039499524 6.552276157647252 -7.212123074377935 -15.874046265999038 7.589859466083699 15.212123074377935
29.864657452696321 7.311262104255622 -7.527723643849750 -15.304540679195835 6.830873519475329 15.527723643849750
7.967743413009885 8.070248050863992 30.642278921927396 6.592373360490600 6.071887572866959 -22.642278921927396
29.295151865893118 8.070248050863992 -7.843324213321566 -14.735035092392632 6.071887572866959 15.843324213321566
7.398237826206682 8.829233997472361 30.326678352455581 7.161878947293804 5.312901626258590 -22.326678352455581
28.240932450615297 8.829233997472361 -7.284251984264996 -13.680815677114811 5.312901626258590 15.284251984264996
27.586635105483502 10.347205890689102 -8.790125921737015 -13.026518331983016 3.794929733041849 16.790125921737015
4.635501650519245 11.865177783905841 29.938948873096702 9.924615122981240 2.276957839825110 -21.938948873096702
26.447623931877096 11.865177783905841 -9.421327060680646 -11.887507158376611 2.276957839825110 17.421327060680646
4.065996063716041 12.624163730514212 29.623348303624883 10.494120709784445 1.517971893216739 -21.623348303624883
26.362832173548512 12.624163730514212 -10.611600428680852 -11.802715400048026 1.517971893216739 18.611600428680852
3.496490476912836 13.383149677122582 29.307747734153068 11.063626296587650 0.758985946608369 -21.307747734153068
26.278040415219927 13.383149677122582 -11.801873796681051 -11.717923641719441 0.758985946608369 19.801873796681051
2.926984890109631 14.142135623730951 28.992147164681253 11.633131883390854 0.000000000000000 -20.992147164681253
2.357479303306427 14.901121570339320 28.676546595209437 12.202637470194059 -0.758985946608369 -20.676546595209437
1.787973716503222 15.660107516947690 28.360946025737622 12.772143056997264 -1.517971893216739 -20.360946025737622
1.703181958174639 16.419093463556059 27.170672657737416 12.856934815325847 -2.276957839825108 -19.170672657737416
1.133676371371434 17.178079410164429 26.855072088265601 13.426440402129051 -3.035943786433478 -18.855072088265601
0.564170784568230 17.937065356772802 26.539471518793786 13.995945988932256 -3.794929733041851 -18.539471518793786
-0.005334802234975 18.696051303381171 26.223870949321970 14.565451575735461 -4.553915679650220 -18.223870949321970
-0.574840389038179 19.455037249989541 25.908270379850151 15.134957162538665 -5.312901626258590 -17.908270379850151
-1.144345975841382 20.214023196597910 25.592669810378336 15.704462749341868 -6.071887572866959 -17.592669810378336
-0.659632147366764 20.214023196597910 24.717997011849953 15.219748920867250 -6.071887572866959 -16.717997011849953
-1.229137734169971 20.973009143206280 24.402396442378137 15.789254507670456 -6.830873519475329 -16.402396442378137
22.921761931232389 21.731995089814649 -20.521516852041341 -8.361645157731903 -7.589859466083698 28.521516852041341
-1.883435079301758 22.490981036423022 22.896522504906116 16.443551852802244 -8.348845412692071 -14.896522504906116
22.352256344429186 22.490981036423022 -20.837117421513156 -7.792139570928700 -8.348845412692071 28.837117421513156
21.298036929151365 23.249966983031392 -20.278045192456592 -6.737920155650880 -9.107831359300441 28.278045192456592
22.267464586100601 23.249966983031392 -22.027390789513362 -7.707347812600116 -9.107831359300441 30.027390789513362
-2.537732424433550 24.008952929639761 21.390648567434098 17.097849197934035 -9.866817305908810 -13.390648567434098
21.213245170822777 24.008952929639761 -21.468318560456790 -6.653128397322291 -9.866817305908810 29.468318560456790
-2.622524182762135 24.767938876248131 20.200375199433900 17.182640956262620 -10.625803252517180 -12.200375199433900
-2.137810354287517 24.767938876248131 19.325702400905513 16.697927127788002 -10.625803252517180 -11.325702400905513
20.643739584019574 24.767938876248131 -21.783919129928606 -6.083622810519088 -10.625803252517180 29.783919129928606
-2.707315941090719 25.526924822856500 19.010101831433698 17.267432714591205 -11.384789199125549 -11.010101831433698
20.074233997216368 25.526924822856500 -22.099519699400421 -5.514117223715882 -11.384789199125549 30.099519699400421
18.535300753463929 26.285910769464870 -20.665774671815470 -3.975183979963443 -12.143775145733919 28.665774671815470
18.450508995135344 27.044896716073239 -21.856048039815672 -3.890392221634858 -12.902761092342288 29.856048039815672
17.881003408332138 27.803882662681609 -22.171648609287487 -3.320886634831652 -13.661747038950658 30.171648609287487
16.826783993054313 28.562868609289978 -21.612576380230916 -2.266667219553828 -14.420732985559027 29.612576380230916
-4.585416218157501 29.321854555898348 15.682753387017845 19.145532991657987 -15.179718932167397 -7.682753387017845
-3.131274732733647 29.321854555898348 13.058734991432688 17.691391506234133 -15.179718932167397 -5.058734991432688
-4.670207976486086 30.080840502506717 14.492480019017645 19.230324749986572 -15.938704878775766 -6.492480019017645
-3.700780319536850 30.080840502506717 12.743134421960873 18.260897093037336 -15.938704878775766 -4.743134421960873
-2.816144420916199 30.839826449115090 9.803515456903899 17.376261194416685 -16.697690825384139 -1.803515456903899
-3.870363836194020 31.598812395723460 10.362587685960470 18.430480609694506 -17.456676771992509 -2.362587685960470
13.094620160417641 31.598812395723460 -20.250960262533024 1.465496613082845 -17.456676771992509 28.250960262533024
13.579333988892259 31.598812395723460 -21.125633061061411 0.980782784608227 -17.456676771992509 29.125633061061411
-2.985727937573369 32.357798342331833 7.422968720903497 17.545844711073855 -18.215662718600882 0.577031279096503
11.555686916665199 32.357798342331833 -18.817215234948069 3.004429856835287 -18.215662718600882 26.817215234948069
12.525114573614436 32.357798342331833 -20.566560832004839 2.035002199886049 -18.215662718600882 28.566560832004839
-4.039947352851190 33.116784288940195 7.982040949960066 18.600064126351675 -18.974648665209244 0.017959050039934
-3.070519695901954 33.116784288940195 6.232695352903296 17.630636469402440 -18.974648665209244 1.767304647096704
-1.616378210478096 33.116784288940195 3.608676957318139 16.176494983978582 -18.974648665209244 4.391323042681861
10.501467501387376 33.116784288940195 -18.258143005891498 4.058649272113110 -18.974648665209244 26.258143005891498
10.986181329861996 33.116784288940195 -19.132815804419884 3.573935443638490 -18.974648665209244 27.132815804419884
-3.640025282705157 33.875770235548572 5.917094783431480 18.200142056205642 -19.733634611817621 2.082905216568520
-3.155311454230539 33.875770235548572 5.042421984903094 17.715428227731024 -19.733634611817621 2.957578015096906
9.447248086109553 33.875770235548572 -17.699070776834930 5.112868687390932 -19.733634611817621 25.699070776834930
9.931961914584171 33.875770235548572 -18.573743575363316 4.628154858916314 -19.733634611817621 26.573743575363316
-3.724817041033745 34.634756182156934 4.726821415431277 18.284933814534231 -20.492620558425983 3.273178584568723
-3.240103212559124 34.634756182156934 3.852148616902891 17.800219986059609 -20.492620558425983 4.147851383097109
-2.270675555609888 34.634756182156934 2.102803019846121 16.830792329110373 -20.492620558425983 5.897196980153879
-1.785961727135270 34.634756182156934 1.228130221317735 16.346078500635755 -20.492620558425983 6.771869778682265
-1.301247898660650 34.634756182156934 0.353457422789349 15.861364672161136 -20.492620558425983 7.646542577210651
7.908314842357111 34.634756182156934 -16.265325749249975 6.651801931143375 -20.492620558425983 24.265325749249975
8.877742499306349 34.634756182156934 -18.014671346306745 5.682374274194137 -20.492620558425983 26.014671346306745
-1.386039656989235 35.393742128765311 -0.836815945210851 15.946156430489721 -21.251606505034360 8.836815945210851
-0.901325828514615 35.393742128765311 -1.711488743739237 15.461442602015101 -21.251606505034360 9.711488743739237
5.884667770130049 35.393742128765311 -13.956907923136633 8.675449003370437 -21.251606505034360 21.956907923136633
6.854095427079287 35.393742128765311 -15.706253520193407 7.706021346421199 -21.251606505034360 23.706253520193407
7.338809255553906 35.393742128765311 -16.580926318721790 7.221307517946579 -21.251606505034360 24.580926318721790
7.823523084028524 35.393742128765311 -17.455599117250177 6.736593689471961 -21.251606505034360 25.455599117250177
8.308236912503144 35.393742128765311 -18.330271915778560 6.251879860997342 -21.251606505034360 26.330271915778560
-0.986117586843202 36.152728075373680 -2.901762111739441 15.546234360343687 -22.010592451642729 10.901762111739441
-0.501403758368582 36.152728075373680 -3.776434910267826 15.061520531869068 -22.010592451642729 11.776434910267826
0.468023898580656 36.152728075373680 -5.525780507324596 14.092092874919830 -22.010592451642729 13.525780507324596
0.952737727055274 36.152728075373680 -6.400453305852981 13.607379046445212 -22.010592451642729 14.400453305852981
1.437451555529893 36.152728075373680 -7.275126104381368 13.122665217970592 -22.010592451642729 15.275126104381368
1.922165384004511 36.152728075373680 -8.149798902909751 12.637951389495974 -22.010592451642729 16.149798902909751
2.406879212479131 36.152728075373680 -9.024471701438138 12.153237561021355 -22.010592451642729 17.024471701438138
2.891593040953751 36.152728075373680 -9.899144499966525 11.668523732546735 -22.010592451642729 17.899144499966525
3.376306869428369 36.152728075373680 -10.773817298494912 11.183809904072117 -22.010592451642729 18.773817298494912
3.861020697902987 36.152728075373680 -11.648490097023295 10.699096075597499 -22.010592451642729 19.648490097023295
4.345734526377607 36.152728075373680 -12.523162895551678 10.214382247122879 -22.010592451642729 20.523162895551678
4.830448354852226 36.152728075373680 -13.397835694080065 9.729668418648259 -22.010592451642729 21.397835694080065
5.315162183326844 36.152728075373680 -14.272508492608452 9.244954590173641 -22.010592451642729 22.272508492608452
-0.586195516697167 36.911714021982050 -4.966708278268026 15.146312290197653 -22.769578398251099 12.966708278268026
25.695067358046806 -3.636871745983434 23.339106009934973 -9.330436772177986 18.636871745983434 -14.339106009934973
26.180905285870026 -3.636871745983434 22.465057093747532 -9.816274700001205 18.636871745983434 -13.465057093747532
26.666743213693245 -3.636871745983434 21.591008177560088 -10.302112627824425 18.636871745983434 -12.591008177560088
27.152581141516460 -3.636871745983434 20.716959261372647 -10.787950555647640 18.636871745983434 -11.716959261372647
27.638419069339676 -3.636871745983434 19.842910345185203 -11.273788483470856 18.636871745983434 -10.842910345185203
28.124256997162895 -3.636871745983434 18.968861428997762 -11.759626411294075 18.636871745983434 -9.968861428997762
28.610094924986111 -3.636871745983434 18.094812512810321 -12.245464339117291 18.636871745983434 -9.094812512810321
29.581770780632546 -3.636871745983434 16.346714680435436 -13.217140194763726 18.636871745983434 -7.346714680435436
31.039284564102196 -3.636871745983434 13.724567931873109 -14.674653978233376 18.636871745983434 -4.724567931873109
24.172677327618551 -2.860335423234122 24.781090730625046 -7.808046741749731 17.860335423234122 -15.781090730625046
32.431922100613249 -2.860335423234122 9.922259155438532 -16.067291514744429 17.860335423234122 -0.922259155438532
32.917760028436462 -2.860335423234122 9.048210239251087 -16.553129442567641 17.860335423234122 -0.048210239251087
33.403597956259681 -2.860335423234122 8.174161323063647 -17.038967370390861 17.860335423234122 0.825838676936353
33.889435884082900 -2.860335423234122 7.300112406876204 -17.524805298214080 17.860335423234122 1.699887593123796
34.375273811906112 -2.860335423234122 6.426063490688762 -18.010643226037292 17.860335423234122 2.573936509311238
35.346949667552551 -2.860335423234122 4.677965658313877 -18.982319081683730 17.860335423234122 4.322034341686123
35.832787595375763 -2.860335423234122 3.803916742126436 -19.468157009506943 17.860335423234122 5.196083257873564
36.318625523198989 -2.860335423234122 2.929867825938993 -19.953994937330169 17.860335423234122 6.070132174061007
22.164449369367080 -2.083799100484814 27.097124367502566 -5.799818783498260 17.083799100484814 -18.097124367502566
22.650287297190296 -2.083799100484814 26.223075451315122 -6.285656711321476 17.083799100484814 -17.223075451315122
23.136125225013515 -2.083799100484814 25.349026535127681 -6.771494639144695 17.083799100484814 -16.349026535127681
