ply 
format ascii 1.0 
element vertex 417
property double x 
property double y
property double z 
property double nx
property double ny
property double nz
end_header
36.556349186104043 5.443650813895957 55.154328932550712 -36.556349186104043 -5.443650813895957 -55.154328932550712
37.263455967290582 4.736544032709403 55.154328932550712 -37.263455967290582 -4.736544032709403 -55.154328932550712
37.763455967290582 5.236544032709403 54.447222151364159 -37.763455967290582 -5.236544032709403 -54.447222151364159
38.470562748477136 4.529437251522857 54.447222151364159 -38.470562748477136 -4.529437251522857 -54.447222151364159
39.884776310850228 3.115223689149765 54.447222151364159 -39.884776310850228 -3.115223689149765 -54.447222151364159
39.677669529663682 4.322330470336311 53.740115370177612 -39.677669529663682 -4.322330470336311 -53.740115370177612
40.384776310850228 3.615223689149765 53.740115370177612 -40.384776310850228 -3.615223689149765 -53.740115370177612
41.591883092036781 3.408116907963219 53.033008588991066 -41.591883092036781 -3.408116907963219 -53.033008588991066
42.091883092036781 3.908116907963219 52.325901807804513 -42.091883092036781 -3.908116907963219 -52.325901807804513
42.798989873223320 3.201010126776673 52.325901807804513 -42.798989873223320 -3.201010126776673 -52.325901807804513
42.591883092036781 4.408116907963219 51.618795026617974 -42.591883092036781 -4.408116907963219 -51.618795026617974
43.298989873223320 3.701010126776673 51.618795026617974 -43.298989873223320 -3.701010126776673 -51.618795026617974
44.006096654409873 2.993903345590120 51.618795026617974 -44.006096654409873 -2.993903345590120 -51.618795026617974
44.506096654409873 3.493903345590120 50.911688245431421 -44.506096654409873 -3.493903345590120 -50.911688245431421
45.213203435596419 2.786796564403573 50.911688245431421 -45.213203435596419 -2.786796564403573 -50.911688245431421
45.713203435596419 3.286796564403577 50.204581464244875 -45.713203435596419 -3.286796564403577 -50.204581464244875
46.213203435596419 3.786796564403577 49.497474683058329 -46.213203435596419 -3.786796564403577 -49.497474683058329
46.713203435596419 4.286796564403577 48.790367901871782 -46.713203435596419 -4.286796564403577 -48.790367901871782
47.420310216782966 3.579689783217027 48.790367901871782 -47.420310216782966 -3.579689783217027 -48.790367901871782
47.920310216782966 4.079689783217027 48.083261120685236 -47.920310216782966 -4.079689783217027 -48.083261120685236
48.420310216782966 4.579689783217027 47.376154339498683 -48.420310216782966 -4.579689783217027 -47.376154339498683
50.834523779156058 4.165476220843935 45.961940777125591 -50.834523779156058 -4.165476220843935 -45.961940777125591
9.615223689149754 46.384776310850235 45.254833995939045 -9.615223689149754 -46.384776310850235 -45.254833995939045
50.627416997969519 5.372583002030481 45.254833995939045 -50.627416997969519 -5.372583002030481 -45.254833995939045
10.115223689149754 46.884776310850235 44.547727214752499 -10.115223689149754 -46.884776310850235 -44.547727214752499
51.834523779156058 5.165476220843935 44.547727214752499 -51.834523779156058 -5.165476220843935 -44.547727214752499
52.334523779156058 5.665476220843935 43.840620433565945 -52.334523779156058 -5.665476220843935 -43.840620433565945
52.834523779156058 6.165476220843935 43.133513652379399 -52.834523779156058 -6.165476220843935 -43.133513652379399
53.334523779156058 6.665476220843935 42.426406871192853 -53.334523779156058 -6.665476220843935 -42.426406871192853
53.834523779156058 7.165476220843935 41.719300090006307 -53.834523779156058 -7.165476220843935 -41.719300090006307
54.334523779156058 7.665476220843935 41.012193308819761 -54.334523779156058 -7.665476220843935 -41.012193308819761
54.834523779156058 8.165476220843935 40.305086527633208 -54.834523779156058 -8.165476220843935 -40.305086527633208
55.334523779156058 8.665476220843935 39.597979746446661 -55.334523779156058 -8.665476220843935 -39.597979746446661
14.115223689149754 50.884776310850235 38.890872965260115 -14.115223689149754 -50.884776310850235 -38.890872965260115
55.834523779156058 9.165476220843935 38.890872965260115 -55.834523779156058 -9.165476220843935 -38.890872965260115
14.615223689149754 51.384776310850235 38.183766184073569 -14.615223689149754 -51.384776310850235 -38.183766184073569
55.627416997969519 10.372583002030481 38.183766184073569 -55.627416997969519 -10.372583002030481 -38.183766184073569
15.115223689149754 51.884776310850235 37.476659402887023 -15.115223689149754 -51.884776310850235 -37.476659402887023
56.127416997969519 10.872583002030481 37.476659402887023 -56.127416997969519 -10.872583002030481 -37.476659402887023
16.322330470336304 51.677669529663689 36.769552621700470 -16.322330470336304 -51.677669529663689 -36.769552621700470
56.627416997969519 11.372583002030481 36.769552621700470 -56.627416997969519 -11.372583002030481 -36.769552621700470
16.115223689149754 52.884776310850235 36.062445840513924 -16.115223689149754 -52.884776310850235 -36.062445840513924
56.420310216782966 12.579689783217027 36.062445840513924 -56.420310216782966 -12.579689783217027 -36.062445840513924
17.322330470336304 52.677669529663689 35.355339059327378 -17.322330470336304 -52.677669529663689 -35.355339059327378
56.213203435596419 13.786796564403577 35.355339059327378 -56.213203435596419 -13.786796564403577 -35.355339059327378
18.529437251522850 52.470562748477136 34.648232278140831 -18.529437251522850 -52.470562748477136 -34.648232278140831
57.420310216782966 13.579689783217027 34.648232278140831 -57.420310216782966 -13.579689783217027 -34.648232278140831
18.322330470336304 53.677669529663689 33.941125496954285 -18.322330470336304 -53.677669529663689 -33.941125496954285
19.029437251522850 52.970562748477143 33.941125496954285 -19.029437251522850 -52.970562748477143 -33.941125496954285
19.529437251522850 53.470562748477143 33.234018715767732 -19.529437251522850 -53.470562748477143 -33.234018715767732
20.736544032709400 53.263455967290597 32.526911934581193 -20.736544032709400 -53.263455967290597 -32.526911934581193
57.506096654409873 16.493903345590127 32.526911934581193 -57.506096654409873 -16.493903345590127 -32.526911934581193
58.213203435596419 15.786796564403579 32.526911934581193 -58.213203435596419 -15.786796564403579 -32.526911934581193
21.236544032709400 53.763455967290597 31.819805153394640 -21.236544032709400 -53.763455967290597 -31.819805153394640
21.736544032709400 54.263455967290597 31.112698372208094 -21.736544032709400 -54.263455967290597 -31.112698372208094
57.091883092036781 18.908116907963219 31.112698372208094 -57.091883092036781 -18.908116907963219 -31.112698372208094
57.591883092036781 19.408116907963219 30.405591591021548 -57.591883092036781 -19.408116907963219 -30.405591591021548
23.443650813895946 54.556349186104043 29.698484809834998 -23.443650813895946 -54.556349186104043 -29.698484809834998
24.650757595082496 54.349242404917497 28.991378028648452 -24.650757595082496 -54.349242404917497 -28.991378028648452
57.177669529663682 21.822330470336318 28.991378028648452 -57.177669529663682 -21.822330470336318 -28.991378028648452
57.884776310850228 21.115223689149765 28.991378028648452 -57.884776310850228 -21.115223689149765 -28.991378028648452
25.857864376269042 54.142135623730951 28.284271247461902 -25.857864376269042 -54.142135623730951 -28.284271247461902
56.970562748477136 23.029437251522864 28.284271247461902 -56.970562748477136 -23.029437251522864 -28.284271247461902
57.677669529663682 22.322330470336318 28.284271247461902 -57.677669529663682 -22.322330470336318 -28.284271247461902
57.470562748477136 23.529437251522864 27.577164466275356 -57.470562748477136 -23.529437251522864 -27.577164466275356
26.857864376269042 55.142135623730951 26.870057685088810 -26.857864376269042 -55.142135623730951 -26.870057685088810
55.642135623730944 27.357864376269053 26.162950903902260 -55.642135623730944 -27.357864376269053 -26.162950903902260
29.272077938642134 54.727922061357859 25.455844122715714 -29.272077938642134 -54.727922061357859 -25.455844122715714
56.142135623730944 27.857864376269056 25.455844122715714 -56.142135623730944 -27.857864376269056 -25.455844122715714
29.772077938642134 55.227922061357859 24.748737341529168 -29.772077938642134 -55.227922061357859 -24.748737341529168
31.186291501015234 53.813708498984766 24.748737341529168 -31.186291501015234 -53.813708498984766 -24.748737341529168
55.227922061357852 29.772077938642148 24.748737341529168 -55.227922061357852 -29.772077938642148 -24.748737341529168
55.935028842544398 29.064971157455602 24.748737341529168 -55.935028842544398 -29.064971157455602 -24.748737341529168
56.642135623730944 28.357864376269056 24.748737341529168 -56.642135623730944 -28.357864376269056 -24.748737341529168
32.393398282201780 53.606601717798213 24.041630560342618 -32.393398282201780 -53.606601717798213 -24.041630560342618
55.727922061357852 30.272077938642148 24.041630560342618 -55.727922061357852 -30.272077938642148 -24.041630560342618
33.600505063388326 53.399494936611667 23.334523779156072 -33.600505063388326 -53.399494936611667 -23.334523779156072
37.843145750507610 49.156854249492383 23.334523779156072 -37.843145750507610 -49.156854249492383 -23.334523779156072
40.671572875253801 46.328427124746192 23.334523779156072 -40.671572875253801 -46.328427124746192 -23.334523779156072
54.813708498984752 32.186291501015248 23.334523779156072 -54.813708498984752 -32.186291501015248 -23.334523779156072
55.520815280171306 31.479184719828694 23.334523779156072 -55.520815280171306 -31.479184719828694 -23.334523779156072
34.807611844574872 53.192388155425121 22.627416997969526 -34.807611844574872 -53.192388155425121 -22.627416997969526
36.221825406947971 51.778174593052029 22.627416997969526 -36.221825406947971 -51.778174593052029 -22.627416997969526
36.928932188134517 51.071067811865476 22.627416997969526 -36.928932188134517 -51.071067811865476 -22.627416997969526
37.636038969321064 50.363961030678929 22.627416997969526 -37.636038969321064 -50.363961030678929 -22.627416997969526
38.343145750507617 49.656854249492383 22.627416997969526 -38.343145750507617 -49.656854249492383 -22.627416997969526
39.757359312880709 48.242640687119291 22.627416997969526 -39.757359312880709 -48.242640687119291 -22.627416997969526
40.464466094067255 47.535533905932738 22.627416997969526 -40.464466094067255 -47.535533905932738 -22.627416997969526
41.878679656440355 46.121320343559645 22.627416997969526 -41.878679656440355 -46.121320343559645 -22.627416997969526
43.292893218813447 44.707106781186553 22.627416997969526 -43.292893218813447 -44.707106781186553 -22.627416997969526
43.999999999999993 44.000000000000000 22.627416997969526 -43.999999999999993 -44.000000000000000 -22.627416997969526
44.707106781186539 43.292893218813454 22.627416997969526 -44.707106781186539 -43.292893218813454 -22.627416997969526
45.414213562373092 42.585786437626908 22.627416997969526 -45.414213562373092 -42.585786437626908 -22.627416997969526
53.899494936611660 34.100505063388340 22.627416997969526 -53.899494936611660 -34.100505063388340 -22.627416997969526
52.278174593052015 36.721825406947985 21.920310216782976 -52.278174593052015 -36.721825406947985 -21.920310216782976
52.985281374238568 36.014718625761432 21.920310216782976 -52.985281374238568 -36.014718625761432 -21.920310216782976
53.692388155425114 35.307611844574886 21.920310216782976 -53.692388155425114 -35.307611844574886 -21.920310216782976
55.106601717798206 33.893398282201794 21.920310216782976 -55.106601717798206 -33.893398282201794 -21.920310216782976
52.263455967290582 19.736544032709411 21.213203435596427 -52.263455967290582 -19.736544032709411 -21.213203435596427
24.479184719828684 48.520815280171306 20.506096654409880 -24.479184719828684 -48.520815280171306 -20.506096654409880
25.893398282201780 47.106601717798213 20.506096654409880 -25.893398282201780 -47.106601717798213 -20.506096654409880
51.349242404917490 21.650757595082503 20.506096654409880 -51.349242404917490 -21.650757595082503 -20.506096654409880
52.056349186104043 20.943650813895957 20.506096654409880 -52.056349186104043 -20.943650813895957 -20.506096654409880
26.393398282201780 47.606601717798213 19.798989873223331 -26.393398282201780 -47.606601717798213 -19.798989873223331
28.514718625761422 45.485281374238568 19.798989873223331 -28.514718625761422 -45.485281374238568 -19.798989873223331
50.435028842544398 23.564971157455602 19.798989873223331 -50.435028842544398 -23.564971157455602 -19.798989873223331
51.142135623730944 22.857864376269053 19.798989873223331 -51.142135623730944 -22.857864376269053 -19.798989873223331
27.600505063388326 47.399494936611667 19.091883092036785 -27.600505063388326 -47.399494936611667 -19.091883092036785
28.307611844574872 46.692388155425121 19.091883092036785 -28.307611844574872 -46.692388155425121 -19.091883092036785
30.428932188134517 44.571067811865476 19.091883092036785 -30.428932188134517 -44.571067811865476 -19.091883092036785
29.514718625761422 46.485281374238575 18.384776310850238 -29.514718625761422 -46.485281374238575 -18.384776310850238
12.999999999999993 12.999999999999996 59.396969619669989 -12.999999999999993 -12.999999999999996 -59.396969619669989
13.707106781186541 12.292893218813449 59.396969619669989 -13.707106781186541 -12.292893218813449 -59.396969619669989
13.499999999999993 13.499999999999996 58.689862838483442 -13.499999999999993 -13.499999999999996 -58.689862838483442
18.949747468305826 9.050252531694163 57.982756057296896 -18.949747468305826 -9.050252531694163 -57.982756057296896
8.136038969321064 20.863961030678922 57.275649276110350 -8.136038969321064 -20.863961030678922 -57.275649276110350
9.550252531694159 19.449747468305830 57.275649276110350 -9.550252531694159 -19.449747468305830 -57.275649276110350
10.257359312880709 18.742640687119280 57.275649276110350 -10.257359312880709 -18.742640687119280 -57.275649276110350
10.964466094067255 18.035533905932734 57.275649276110350 -10.964466094067255 -18.035533905932734 -57.275649276110350
13.792893218813445 15.207106781186544 57.275649276110350 -13.792893218813445 -15.207106781186544 -57.275649276110350
20.156854249492373 8.843145750507617 57.275649276110350 -20.156854249492373 -8.843145750507617 -57.275649276110350
22.985281374238564 6.014718625761425 57.275649276110350 -22.985281374238564 -6.014718625761425 -57.275649276110350
7.221825406947971 22.778174593052018 56.568542494923804 -7.221825406947971 -22.778174593052018 -56.568542494923804
8.636038969321064 21.363961030678922 56.568542494923804 -8.636038969321064 -21.363961030678922 -56.568542494923804
24.192388155425114 5.807611844574879 56.568542494923804 -24.192388155425114 -5.807611844574879 -56.568542494923804
6.307611844574872 24.692388155425114 55.861435713737251 -6.307611844574872 -24.692388155425114 -55.861435713737251
7.014718625761422 23.985281374238568 55.861435713737251 -7.014718625761422 -23.985281374238568 -55.861435713737251
7.721825406947971 23.278174593052018 55.861435713737251 -7.721825406947971 -23.278174593052018 -55.861435713737251
9.136038969321064 21.863961030678922 55.861435713737251 -9.136038969321064 -21.863961030678922 -55.861435713737251
23.985281374238564 7.014718625761425 55.861435713737251 -23.985281374238564 -7.014718625761425 -55.861435713737251
25.399494936611660 5.600505063388333 55.861435713737251 -25.399494936611660 -5.600505063388333 -55.861435713737251
26.813708498984752 4.186291501015237 55.861435713737251 -26.813708498984752 -4.186291501015237 -55.861435713737251
6.100505063388326 25.899494936611660 55.154328932550712 -6.100505063388326 -25.899494936611660 -55.154328932550712
6.807611844574872 25.192388155425114 55.154328932550712 -6.807611844574872 -25.192388155425114 -55.154328932550712
27.313708498984752 4.686291501015241 55.154328932550712 -27.313708498984752 -4.686291501015241 -55.154328932550712
6.600505063388326 26.399494936611660 54.447222151364159 -6.600505063388326 -26.399494936611660 -54.447222151364159
29.227922061357852 3.772077938642141 54.447222151364159 -29.227922061357852 -3.772077938642141 -54.447222151364159
29.935028842544398 3.064971157455595 54.447222151364159 -29.935028842544398 -3.064971157455595 -54.447222151364159
31.642135623730944 3.357864376269049 53.033008588991066 -31.642135623730944 -3.357864376269049 -53.033008588991066
32.349242404917490 2.650757595082503 53.033008588991066 -32.349242404917490 -2.650757595082503 -53.033008588991066
1.029437251522850 34.970562748477136 52.325901807804513 -1.029437251522850 -34.970562748477136 -52.325901807804513
1.736544032709400 34.263455967290589 52.325901807804513 -1.736544032709400 -34.263455967290589 -52.325901807804513
5.272077938642134 30.727922061357852 52.325901807804513 -5.272077938642134 -30.727922061357852 -52.325901807804513
32.849242404917490 3.150757595082503 52.325901807804513 -32.849242404917490 -3.150757595082503 -52.325901807804513
34.970562748477136 1.029437251522857 52.325901807804513 -34.970562748477136 -1.029437251522857 -52.325901807804513
4.357864376269042 32.642135623730951 51.618795026617974 -4.357864376269042 -32.642135623730951 -51.618795026617974
35.470562748477136 1.529437251522857 51.618795026617974 -35.470562748477136 -1.529437251522857 -51.618795026617974
37.177669529663682 1.822330470336311 50.204581464244875 -37.177669529663682 -1.822330470336311 -50.204581464244875
37.884776310850228 1.115223689149765 50.204581464244875 -37.884776310850228 -1.115223689149765 -50.204581464244875
38.384776310850228 1.615223689149765 49.497474683058329 -38.384776310850228 -1.615223689149765 -49.497474683058329
38.884776310850228 2.115223689149765 48.790367901871775 -38.884776310850228 -2.115223689149765 -48.790367901871775
40.591883092036781 2.408116907963219 47.376154339498683 -40.591883092036781 -2.408116907963219 -47.376154339498683
41.798989873223320 2.201010126776673 46.669047558312137 -41.798989873223320 -2.201010126776673 -46.669047558312137
42.506096654409873 1.493903345590123 46.669047558312137 -42.506096654409873 -1.493903345590123 -46.669047558312137
43.006096654409873 1.993903345590123 45.961940777125591 -43.006096654409873 -1.993903345590123 -45.961940777125591
44.006096654409873 2.993903345590123 44.547727214752499 -44.006096654409873 -2.993903345590123 -44.547727214752499
45.213203435596419 2.786796564403577 43.840620433565945 -45.213203435596419 -2.786796564403577 -43.840620433565945
45.713203435596419 3.286796564403577 43.133513652379399 -45.713203435596419 -3.286796564403577 -43.133513652379399
46.713203435596419 4.286796564403577 41.719300090006307 -46.713203435596419 -4.286796564403577 -41.719300090006307
7.615223689149754 44.384776310850235 41.012193308819761 -7.615223689149754 -44.384776310850235 -41.012193308819761
47.213203435596419 4.786796564403577 41.012193308819761 -47.213203435596419 -4.786796564403577 -41.012193308819761
8.115223689149754 44.884776310850235 40.305086527633208 -8.115223689149754 -44.884776310850235 -40.305086527633208
47.713203435596419 5.286796564403577 40.305086527633208 -47.713203435596419 -5.286796564403577 -40.305086527633208
48.213203435596419 5.786796564403577 39.597979746446661 -48.213203435596419 -5.786796564403577 -39.597979746446661
48.713203435596419 6.286796564403577 38.890872965260115 -48.713203435596419 -6.286796564403577 -38.890872965260115
9.615223689149754 46.384776310850235 38.183766184073569 -9.615223689149754 -46.384776310850235 -38.183766184073569
49.213203435596419 6.786796564403577 38.183766184073569 -49.213203435596419 -6.786796564403577 -38.183766184073569
50.420310216782966 6.579689783217027 37.476659402887023 -50.420310216782966 -6.579689783217027 -37.476659402887023
10.615223689149754 47.384776310850235 36.769552621700470 -10.615223689149754 -47.384776310850235 -36.769552621700470
49.506096654409873 8.493903345590123 36.769552621700470 -49.506096654409873 -8.493903345590123 -36.769552621700470
50.213203435596419 7.786796564403577 36.769552621700470 -50.213203435596419 -7.786796564403577 -36.769552621700470
11.115223689149754 47.884776310850235 36.062445840513924 -11.115223689149754 -47.884776310850235 -36.062445840513924
49.798989873223320 10.201010126776673 35.355339059327378 -49.798989873223320 -10.201010126776673 -35.355339059327378
51.213203435596419 8.786796564403577 35.355339059327378 -51.213203435596419 -8.786796564403577 -35.355339059327378
51.506096654409873 10.493903345590123 33.941125496954285 -51.506096654409873 -10.493903345590123 -33.941125496954285
14.529437251522850 48.470562748477136 33.234018715767732 -14.529437251522850 -48.470562748477136 -33.234018715767732
52.006096654409873 10.993903345590123 33.234018715767732 -52.006096654409873 -10.993903345590123 -33.234018715767732
51.091883092036781 12.908116907963219 32.526911934581186 -51.091883092036781 -12.908116907963219 -32.526911934581186
51.591883092036781 13.408116907963219 31.819805153394640 -51.591883092036781 -13.408116907963219 -31.819805153394640
52.298989873223320 12.701010126776673 31.819805153394640 -52.298989873223320 -12.701010126776673 -31.819805153394640
16.029437251522850 49.970562748477136 31.112698372208094 -16.029437251522850 -49.970562748477136 -31.112698372208094
52.091883092036781 13.908116907963219 31.112698372208094 -52.091883092036781 -13.908116907963219 -31.112698372208094
17.736544032709400 50.263455967290597 29.698484809834998 -17.736544032709400 -50.263455967290597 -29.698484809834998
18.443650813895946 49.556349186104043 29.698484809834998 -18.443650813895946 -49.556349186104043 -29.698484809834998
53.091883092036781 14.908116907963221 29.698484809834998 -53.091883092036781 -14.908116907963221 -29.698484809834998
18.943650813895946 50.056349186104043 28.991378028648452 -18.943650813895946 -50.056349186104043 -28.991378028648452
51.970562748477136 18.029437251522864 28.284271247461902 -51.970562748477136 -18.029437251522864 -28.284271247461902
52.677669529663682 17.322330470336318 28.284271247461902 -52.677669529663682 -17.322330470336318 -28.284271247461902
53.177669529663682 17.822330470336318 27.577164466275356 -53.177669529663682 -17.822330470336318 -27.577164466275356
53.263455967290582 20.736544032709411 25.455844122715714 -53.263455967290582 -20.736544032709411 -25.455844122715714
28.600505063388326 48.399494936611667 23.334523779156072 -28.600505063388326 -48.399494936611667 -23.334523779156072
28.393398282201780 49.606601717798213 22.627416997969522 -28.393398282201780 -49.606601717798213 -22.627416997969522
30.514718625761422 47.485281374238568 22.627416997969522 -30.514718625761422 -47.485281374238568 -22.627416997969522
29.600505063388326 49.399494936611667 21.920310216782976 -29.600505063388326 -49.399494936611667 -21.920310216782976
32.428932188134517 46.571067811865476 21.920310216782976 -32.428932188134517 -46.571067811865476 -21.920310216782976
52.935028842544398 26.064971157455602 21.920310216782976 -52.935028842544398 -26.064971157455602 -21.920310216782976
31.514718625761422 48.485281374238575 21.213203435596430 -31.514718625761422 -48.485281374238575 -21.213203435596430
32.928932188134517 47.071067811865476 21.213203435596430 -32.928932188134517 -47.071067811865476 -21.213203435596430
35.050252531694163 44.949747468305837 21.213203435596430 -35.050252531694163 -44.949747468305837 -21.213203435596430
52.020815280171306 27.979184719828694 21.213203435596430 -52.020815280171306 -27.979184719828694 -21.213203435596430
52.727922061357852 27.272077938642148 21.213203435596430 -52.727922061357852 -27.272077938642148 -21.213203435596430
34.136038969321064 46.863961030678929 20.506096654409880 -34.136038969321064 -46.863961030678929 -20.506096654409880
35.550252531694156 45.449747468305837 20.506096654409880 -35.550252531694156 -45.449747468305837 -20.506096654409880
36.257359312880709 44.742640687119291 20.506096654409880 -36.257359312880709 -44.742640687119291 -20.506096654409880
51.813708498984752 29.186291501015244 20.506096654409880 -51.813708498984752 -29.186291501015244 -20.506096654409880
36.757359312880709 45.242640687119291 19.798989873223334 -36.757359312880709 -45.242640687119291 -19.798989873223334
37.464466094067255 44.535533905932738 19.798989873223334 -37.464466094067255 -44.535533905932738 -19.798989873223334
38.878679656440355 43.121320343559645 19.798989873223334 -38.878679656440355 -43.121320343559645 -19.798989873223334
39.585786437626894 42.414213562373099 19.798989873223334 -39.585786437626894 -42.414213562373099 -19.798989873223334
41.707106781186539 40.292893218813454 19.798989873223334 -41.707106781186539 -40.292893218813454 -19.798989873223334
50.192388155425114 31.807611844574886 19.798989873223334 -50.192388155425114 -31.807611844574886 -19.798989873223334
50.899494936611660 31.100505063388340 19.798989873223334 -50.899494936611660 -31.100505063388340 -19.798989873223334
43.621320343559631 39.378679656440362 19.091883092036788 -43.621320343559631 -39.378679656440362 -19.091883092036788
44.328427124746185 38.671572875253815 19.091883092036788 -44.328427124746185 -38.671572875253815 -19.091883092036788
46.449747468305830 36.550252531694170 19.091883092036788 -46.449747468305830 -36.550252531694170 -19.091883092036788
47.156854249492369 35.843145750507624 19.091883092036788 -47.156854249492369 -35.843145750507624 -19.091883092036788
49.071067811865468 34.928932188134532 18.384776310850238 -49.071067811865468 -34.928932188134532 -18.384776310850238
0.000000000000000 0.000000000000000 0.000000000000000 0.000000000000000 0.000000000000000 0.000000000000000
0.000000000000000 0.000000000000000 0.000000000000000 0.000000000000000 0.000000000000000 0.000000000000000
0.000000000000000 0.000000000000000 0.000000000000000 0.000000000000000 0.000000000000000 0.000000000000000
0.000000000000000 0.000000000000000 0.000000000000000 0.000000000000000 0.000000000000000 0.000000000000000
0.000000000000000 0.000000000000000 0.000000000000000 0.000000000000000 0.000000000000000 0.000000000000000
0.000000000000000 0.000000000000000 0.000000000000000 0.000000000000000 0.000000000000000 0.000000000000000
0.000000000000000 0.000000000000000 0.000000000000000 0.000000000000000 0.000000000000000 0.000000000000000
0.000000000000000 0.000000000000000 0.000000000000000 0.000000000000000 0.000000000000000 0.000000000000000
0.000000000000000 0.000000000000000 0.000000000000000 0.000000000000000 0.000000000000000 0.000000000000000
0.000000000000000 0.000000000000000 0.000000000000000 0.000000000000000 0.000000000000000 0.000000000000000
0.000000000000000 0.000000000000000 0.000000000000000 0.000000000000000 0.000000000000000 0.000000000000000
0.000000000000000 0.000000000000000 0.000000000000000 0.000000000000000 0.000000000000000 0.000000000000000
0.000000000000000 0.000000000000000 0.000000000000000 0.000000000000000 0.000000000000000 0.000000000000000
0.000000000000000 0.000000000000000 0.000000000000000 0.000000000000000 0.000000000000000 0.000000000000000
0.000000000000000 0.000000000000000 0.000000000000000 0.000000000000000 0.000000000000000 0.000000000000000
0.000000000000000 0.000000000000000 0.000000000000000 0.000000000000000 0.000000000000000 0.000000000000000
0.000000000000000 0.000000000000000 0.000000000000000 0.000000000000000 0.000000000000000 0.000000000000000
0.000000000000000 0.000000000000000 0.000000000000000 0.000000000000000 0.000000000000000 0.000000000000000
0.000000000000000 0.000000000000000 0.000000000000000 0.000000000000000 0.000000000000000 0.000000000000000
0.000000000000000 0.000000000000000 0.000000000000000 0.000000000000000 0.000000000000000 0.000000000000000
0.000000000000000 0.000000000000000 0.000000000000000 0.000000000000000 0.000000000000000 0.000000000000000
0.000000000000000 0.000000000000000 0.000000000000000 0.000000000000000 0.000000000000000 0.000000000000000
0.000000000000000 0.000000000000000 0.000000000000000 0.000000000000000 0.000000000000000 0.000000000000000
0.000000000000000 0.000000000000000 0.000000000000000 0.000000000000000 0.000000000000000 0.000000000000000
0.000000000000000 0.000000000000000 0.000000000000000 0.000000000000000 0.000000000000000 0.000000000000000
0.000000000000000 0.000000000000000 0.000000000000000 0.000000000000000 0.000000000000000 0.000000000000000
0.000000000000000 0.000000000000000 0.000000000000000 0.000000000000000 0.000000000000000 0.000000000000000
0.000000000000000 0.000000000000000 0.000000000000000 0.000000000000000 0.000000000000000 0.000000000000000
0.000000000000000 0.000000000000000 0.000000000000000 0.000000000000000 0.000000000000000 0.000000000000000
0.000000000000000 0.000000000000000 0.000000000000000 0.000000000000000 0.000000000000000 0.000000000000000
0.000000000000000 0.000000000000000 0.000000000000000 0.000000000000000 0.000000000000000 0.000000000000000
0.000000000000000 0.000000000000000 0.000000000000000 0.000000000000000 0.000000000000000 0.000000000000000
0.000000000000000 0.000000000000000 0.000000000000000 0.000000000000000 0.000000000000000 0.000000000000000
0.000000000000000 0.000000000000000 0.000000000000000 0.000000000000000 0.000000000000000 0.000000000000000
0.000000000000000 0.000000000000000 0.000000000000000 0.000000000000000 0.000000000000000 0.000000000000000
0.000000000000000 0.000000000000000 0.000000000000000 0.000000000000000 0.000000000000000 0.000000000000000
0.000000000000000 0.000000000000000 0.000000000000000 0.000000000000000 0.000000000000000 0.000000000000000
0.000000000000000 0.000000000000000 0.000000000000000 0.000000000000000 0.000000000000000 0.000000000000000
0.000000000000000 0.000000000000000 0.000000000000000 0.000000000000000 0.000000000000000 0.000000000000000
0.000000000000000 0.000000000000000 0.000000000000000 0.000000000000000 0.000000000000000 0.000000000000000
0.000000000000000 0.000000000000000 0.000000000000000 0.000000000000000 0.000000000000000 0.000000000000000
0.000000000000000 0.000000000000000 0.000000000000000 0.000000000000000 0.000000000000000 0.000000000000000
0.000000000000000 0.000000000000000 0.000000000000000 0.000000000000000 0.000000000000000 0.000000000000000
0.000000000000000 0.000000000000000 0.000000000000000 0.000000000000000 0.000000000000000 0.000000000000000
0.000000000000000 0.000000000000000 0.000000000000000 0.000000000000000 0.000000000000000 0.000000000000000
0.000000000000000 0.000000000000000 0.000000000000000 0.000000000000000 0.000000000000000 0.000000000000000
0.000000000000000 0.000000000000000 0.000000000000000 0.000000000000000 0.000000000000000 0.000000000000000
0.000000000000000 0.000000000000000 0.000000000000000 0.000000000000000 0.000000000000000 0.000000000000000
0.000000000000000 0.000000000000000 0.000000000000000 0.000000000000000 0.000000000000000 0.000000000000000
0.000000000000000 0.000000000000000 0.000000000000000 0.000000000000000 0.000000000000000 0.000000000000000
0.000000000000000 0.000000000000000 0.000000000000000 0.000000000000000 0.000000000000000 0.000000000000000
0.000000000000000 0.000000000000000 0.000000000000000 0.000000000000000 0.000000000000000 0.000000000000000
0.000000000000000 0.000000000000000 0.000000000000000 0.000000000000000 0.000000000000000 0.000000000000000
0.000000000000000 0.000000000000000 0.000000000000000 0.000000000000000 0.000000000000000 0.000000000000000
0.000000000000000 0.000000000000000 0.000000000000000 0.000000000000000 0.000000000000000 0.000000000000000
0.000000000000000 0.000000000000000 0.000000000000000 0.000000000000000 0.000000000000000 0.000000000000000
0.000000000000000 0.000000000000000 0.000000000000000 0.000000000000000 0.000000000000000 0.000000000000000
0.000000000000000 0.000000000000000 0.000000000000000 0.000000000000000 0.000000000000000 0.000000000000000
0.000000000000000 0.000000000000000 0.000000000000000 0.000000000000000 0.000000000000000 0.000000000000000
0.000000000000000 0.000000000000000 0.000000000000000 0.000000000000000 0.000000000000000 0.000000000000000
15.292893218813445 16.707106781186546 60.811183182043088 -15.292893218813445 -16.707106781186546 -60.811183182043088
15.999999999999993 15.999999999999996 60.811183182043088 -15.999999999999993 -15.999999999999996 -60.811183182043088
16.707106781186539 15.292893218813449 60.811183182043088 -16.707106781186539 -15.292893218813449 -60.811183182043088
17.414213562373089 14.585786437626901 60.811183182043088 -17.414213562373089 -14.585786437626901 -60.811183182043088
18.121320343559635 13.878679656440355 60.811183182043088 -18.121320343559635 -13.878679656440355 -60.811183182043088
18.828427124746185 13.171572875253808 60.811183182043088 -18.828427124746185 -13.171572875253808 -60.811183182043088
22.363961030678922 9.636038969321071 60.811183182043088 -22.363961030678922 -9.636038969321071 -60.811183182043088
13.671572875253803 19.328427124746185 60.104076400856542 -13.671572875253803 -19.328427124746185 -60.104076400856542
15.085786437626897 17.914213562373092 60.104076400856542 -15.085786437626897 -17.914213562373092 -60.104076400856542
22.863961030678922 10.136038969321071 60.104076400856542 -22.863961030678922 -10.136038969321071 -60.104076400856542
24.985281374238564 8.014718625761425 60.104076400856542 -24.985281374238564 -8.014718625761425 -60.104076400856542
27.813708498984752 5.186291501015237 60.104076400856542 -27.813708498984752 -5.186291501015237 -60.104076400856542
12.050252531694159 21.949747468305830 59.396969619669989 -12.050252531694159 -21.949747468305830 -59.396969619669989
12.757359312880709 21.242640687119280 59.396969619669989 -12.757359312880709 -21.242640687119280 -59.396969619669989
13.464466094067255 20.535533905932734 59.396969619669989 -13.464466094067255 -20.535533905932734 -59.396969619669989
14.171572875253803 19.828427124746185 59.396969619669989 -14.171572875253803 -19.828427124746185 -59.396969619669989
24.071067811865468 9.928932188134521 59.396969619669989 -24.071067811865468 -9.928932188134521 -59.396969619669989
11.136038969321064 23.863961030678922 58.689862838483450 -11.136038969321064 -23.863961030678922 -58.689862838483450
11.843145750507613 23.156854249492376 58.689862838483450 -11.843145750507613 -23.156854249492376 -58.689862838483450
10.221825406947971 25.778174593052022 57.982756057296896 -10.221825406947971 -25.778174593052022 -57.982756057296896
31.435028842544398 4.564971157455595 57.982756057296896 -31.435028842544398 -4.564971157455595 -57.982756057296896
8.600505063388326 28.399494936611660 57.275649276110350 -8.600505063388326 -28.399494936611660 -57.275649276110350
32.642135623730944 4.357864376269049 57.275649276110350 -32.642135623730944 -4.357864376269049 -57.275649276110350
8.393398282201780 29.606601717798210 56.568542494923804 -8.393398282201780 -29.606601717798210 -56.568542494923804
9.100505063388326 28.899494936611660 56.568542494923804 -9.100505063388326 -28.899494936611660 -56.568542494923804
33.849242404917490 4.150757595082503 56.568542494923804 -33.849242404917490 -4.150757595082503 -56.568542494923804
8.893398282201780 30.106601717798210 55.861435713737258 -8.893398282201780 -30.106601717798210 -55.861435713737258
35.056349186104043 3.943650813895957 55.861435713737258 -35.056349186104043 -3.943650813895957 -55.861435713737258
5.857864376269042 34.142135623730951 55.154328932550712 -5.857864376269042 -34.142135623730951 -55.154328932550712
6.564971157455588 33.435028842544398 55.154328932550712 -6.564971157455588 -33.435028842544398 -55.154328932550712
7.272077938642134 32.727922061357852 55.154328932550712 -7.272077938642134 -32.727922061357852 -55.154328932550712
36.263455967290582 3.736544032709403 55.154328932550712 -36.263455967290582 -3.736544032709403 -55.154328932550712
37.470562748477136 3.529437251522857 54.447222151364159 -37.470562748477136 -3.529437251522857 -54.447222151364159
38.884776310850228 2.115223689149765 54.447222151364159 -38.884776310850228 -2.115223689149765 -54.447222151364159
39.384776310850228 2.615223689149765 53.740115370177612 -39.384776310850228 -2.615223689149765 -53.740115370177612
40.591883092036781 2.408116907963219 53.033008588991066 -40.591883092036781 -2.408116907963219 -53.033008588991066
41.798989873223320 2.201010126776673 52.325901807804520 -41.798989873223320 -2.201010126776673 -52.325901807804520
43.006096654409873 1.993903345590120 51.618795026617974 -43.006096654409873 -1.993903345590120 -51.618795026617974
43.713203435596419 1.286796564403573 51.618795026617974 -43.713203435596419 -1.286796564403573 -51.618795026617974
43.506096654409873 2.493903345590120 50.911688245431421 -43.506096654409873 -2.493903345590120 -50.911688245431421
44.713203435596419 2.286796564403573 50.204581464244875 -44.713203435596419 -2.286796564403573 -50.204581464244875
45.213203435596419 2.786796564403577 49.497474683058329 -45.213203435596419 -2.786796564403577 -49.497474683058329
46.420310216782966 2.579689783217027 48.790367901871782 -46.420310216782966 -2.579689783217027 -48.790367901871782
48.127416997969519 2.872583002030481 47.376154339498683 -48.127416997969519 -2.872583002030481 -47.376154339498683
9.322330470336304 44.677669529663689 45.254833995939045 -9.322330470336304 -44.677669529663689 -45.254833995939045
10.029437251522850 43.970562748477136 45.254833995939045 -10.029437251522850 -43.970562748477136 -45.254833995939045
50.334523779156058 3.665476220843935 45.254833995939045 -50.334523779156058 -3.665476220843935 -45.254833995939045
9.115223689149754 45.884776310850235 44.547727214752499 -9.115223689149754 -45.884776310850235 -44.547727214752499
50.834523779156058 4.165476220843935 44.547727214752499 -50.834523779156058 -4.165476220843935 -44.547727214752499
10.322330470336304 45.677669529663689 43.840620433565952 -10.322330470336304 -45.677669529663689 -43.840620433565952
51.334523779156058 4.665476220843935 43.840620433565952 -51.334523779156058 -4.665476220843935 -43.840620433565952
52.541630560342611 4.458369439657385 43.133513652379399 -52.541630560342611 -4.458369439657385 -43.133513652379399
53.041630560342611 4.958369439657385 42.426406871192853 -53.041630560342611 -4.958369439657385 -42.426406871192853
53.541630560342611 5.458369439657385 41.719300090006307 -53.541630560342611 -5.458369439657385 -41.719300090006307
53.334523779156058 6.665476220843935 41.012193308819761 -53.334523779156058 -6.665476220843935 -41.012193308819761
12.822330470336304 48.177669529663689 40.305086527633215 -12.822330470336304 -48.177669529663689 -40.305086527633215
53.834523779156058 7.165476220843935 40.305086527633215 -53.834523779156058 -7.165476220843935 -40.305086527633215
53.627416997969519 8.372583002030481 39.597979746446661 -53.627416997969519 -8.372583002030481 -39.597979746446661
54.127416997969519 8.872583002030481 38.890872965260115 -54.127416997969519 -8.872583002030481 -38.890872965260115
13.615223689149754 50.384776310850235 38.183766184073569 -13.615223689149754 -50.384776310850235 -38.183766184073569
54.627416997969519 9.372583002030481 38.183766184073569 -54.627416997969519 -9.372583002030481 -38.183766184073569
14.822330470336304 50.177669529663689 37.476659402887023 -14.822330470336304 -50.177669529663689 -37.476659402887023
55.127416997969519 9.872583002030481 37.476659402887023 -55.127416997969519 -9.872583002030481 -37.476659402887023
55.627416997969519 10.372583002030481 36.769552621700477 -55.627416997969519 -10.372583002030481 -36.769552621700477
15.822330470336304 51.177669529663689 36.062445840513931 -15.822330470336304 -51.177669529663689 -36.062445840513931
56.127416997969519 10.872583002030481 36.062445840513931 -56.127416997969519 -10.872583002030481 -36.062445840513931
56.627416997969519 11.372583002030481 35.355339059327378 -56.627416997969519 -11.372583002030481 -35.355339059327378
16.822330470336304 52.177669529663689 34.648232278140831 -16.822330470336304 -52.177669529663689 -34.648232278140831
17.529437251522850 51.470562748477136 34.648232278140831 -17.529437251522850 -51.470562748477136 -34.648232278140831
55.713203435596419 13.286796564403577 34.648232278140831 -55.713203435596419 -13.286796564403577 -34.648232278140831
18.029437251522850 51.970562748477136 33.941125496954285 -18.029437251522850 -51.970562748477136 -33.941125496954285
56.920310216782966 13.079689783217027 33.941125496954285 -56.920310216782966 -13.079689783217027 -33.941125496954285
56.713203435596419 14.286796564403579 33.234018715767739 -56.713203435596419 -14.286796564403579 -33.234018715767739
19.736544032709400 52.263455967290597 32.526911934581193 -19.736544032709400 -52.263455967290597 -32.526911934581193
56.506096654409873 15.493903345590125 32.526911934581193 -56.506096654409873 -15.493903345590125 -32.526911934581193
56.298989873223320 16.701010126776673 31.819805153394643 -56.298989873223320 -16.701010126776673 -31.819805153394643
21.443650813895946 52.556349186104043 31.112698372208094 -21.443650813895946 -52.556349186104043 -31.112698372208094
56.091883092036781 17.908116907963219 31.112698372208094 -56.091883092036781 -17.908116907963219 -31.112698372208094
56.798989873223320 17.201010126776673 31.112698372208094 -56.798989873223320 -17.201010126776673 -31.112698372208094
55.884776310850228 19.115223689149765 30.405591591021548 -55.884776310850228 -19.115223689149765 -30.405591591021548
56.384776310850228 19.615223689149765 29.698484809835001 -56.384776310850228 -19.615223689149765 -29.698484809835001
27.772077938642134 53.227922061357859 26.162950903902264 -27.772077938642134 -53.227922061357859 -26.162950903902264
28.479184719828684 52.520815280171306 26.162950903902264 -28.479184719828684 -52.520815280171306 -26.162950903902264
55.349242404917490 25.650757595082503 26.162950903902264 -55.349242404917490 -25.650757595082503 -26.162950903902264
31.100505063388326 50.899494936611667 25.455844122715714 -31.100505063388326 -50.899494936611667 -25.455844122715714
31.600505063388326 51.399494936611667 24.748737341529168 -31.600505063388326 -51.399494936611667 -24.748737341529168
54.935028842544398 28.064971157455602 24.748737341529168 -54.935028842544398 -28.064971157455602 -24.748737341529168
36.343145750507610 47.656854249492383 24.041630560342622 -36.343145750507610 -47.656854249492383 -24.041630560342622
39.171572875253801 44.828427124746192 24.041630560342622 -39.171572875253801 -44.828427124746192 -24.041630560342622
34.014718625761418 50.985281374238575 23.334523779156072 -34.014718625761418 -50.985281374238575 -23.334523779156072
36.136038969321064 48.863961030678929 23.334523779156072 -36.136038969321064 -48.863961030678929 -23.334523779156072
37.550252531694156 47.449747468305837 23.334523779156072 -37.550252531694156 -47.449747468305837 -23.334523779156072
38.257359312880709 46.742640687119291 23.334523779156072 -38.257359312880709 -46.742640687119291 -23.334523779156072
38.964466094067255 46.035533905932738 23.334523779156072 -38.964466094067255 -46.035533905932738 -23.334523779156072
39.671572875253801 45.328427124746192 23.334523779156072 -39.671572875253801 -45.328427124746192 -23.334523779156072
40.378679656440355 44.621320343559645 23.334523779156072 -40.378679656440355 -44.621320343559645 -23.334523779156072
41.792893218813447 43.207106781186553 23.334523779156072 -41.792893218813447 -43.207106781186553 -23.334523779156072
43.207106781186539 41.792893218813454 23.334523779156072 -43.207106781186539 -41.792893218813454 -23.334523779156072
43.914213562373092 41.085786437626908 23.334523779156072 -43.914213562373092 -41.085786437626908 -23.334523779156072
45.328427124746185 39.671572875253815 23.334523779156072 -45.328427124746185 -39.671572875253815 -23.334523779156072
48.656854249492369 37.343145750507624 22.627416997969526 -48.656854249492369 -37.343145750507624 -22.627416997969526
50.571067811865468 36.428932188134532 21.920310216782980 -50.571067811865468 -36.428932188134532 -21.920310216782980
0.000000000000000 0.000000000000000 0.000000000000000 0.000000000000000 0.000000000000000 0.000000000000000
0.000000000000000 0.000000000000000 0.000000000000000 0.000000000000000 0.000000000000000 0.000000000000000
0.000000000000000 0.000000000000000 0.000000000000000 0.000000000000000 0.000000000000000 0.000000000000000
0.000000000000000 0.000000000000000 0.000000000000000 0.000000000000000 0.000000000000000 0.000000000000000
0.000000000000000 0.000000000000000 0.000000000000000 0.000000000000000 0.000000000000000 0.000000000000000
0.000000000000000 0.000000000000000 0.000000000000000 0.000000000000000 0.000000000000000 0.000000000000000
0.000000000000000 0.000000000000000 0.000000000000000 0.000000000000000 0.000000000000000 0.000000000000000
0.000000000000000 0.000000000000000 0.000000000000000 0.000000000000000 0.000000000000000 0.000000000000000
0.000000000000000 0.000000000000000 0.000000000000000 0.000000000000000 0.000000000000000 0.000000000000000
0.000000000000000 0.000000000000000 0.000000000000000 0.000000000000000 0.000000000000000 0.000000000000000
0.000000000000000 0.000000000000000 0.000000000000000 0.000000000000000 0.000000000000000 0.000000000000000
0.000000000000000 0.000000000000000 0.000000000000000 0.000000000000000 0.000000000000000 0.000000000000000
0.000000000000000 0.000000000000000 0.000000000000000 0.000000000000000 0.000000000000000 0.000000000000000
0.000000000000000 0.000000000000000 0.000000000000000 0.000000000000000 0.000000000000000 0.000000000000000
0.000000000000000 0.000000000000000 0.000000000000000 0.000000000000000 0.000000000000000 0.000000000000000
0.000000000000000 0.000000000000000 0.000000000000000 0.000000000000000 0.000000000000000 0.000000000000000
0.000000000000000 0.000000000000000 0.000000000000000 0.000000000000000 0.000000000000000 0.000000000000000
17.121320343559635 12.878679656440355 60.811183182043088 -17.121320343559635 -12.878679656440355 -60.811183182043088
16.914213562373089 14.085786437626901 60.104076400856542 -16.914213562373089 -14.085786437626901 -60.104076400856542
15.999999999999993 15.999999999999996 59.396969619669996 -15.999999999999993 -15.999999999999996 -59.396969619669996
18.828427124746185 13.171572875253807 59.396969619669996 -18.828427124746185 -13.171572875253807 -59.396969619669996
22.363961030678922 9.636038969321071 59.396969619669996 -22.363961030678922 -9.636038969321071 -59.396969619669996
11.550252531694159 21.449747468305830 58.689862838483450 -11.550252531694159 -21.449747468305830 -58.689862838483450
12.257359312880709 20.742640687119280 58.689862838483450 -12.257359312880709 -20.742640687119280 -58.689862838483450
12.964466094067255 20.035533905932734 58.689862838483450 -12.964466094067255 -20.035533905932734 -58.689862838483450
13.671572875253803 19.328427124746185 58.689862838483450 -13.671572875253803 -19.328427124746185 -58.689862838483450
14.378679656440351 18.621320343559638 58.689862838483450 -14.378679656440351 -18.621320343559638 -58.689862838483450
15.085786437626897 17.914213562373092 58.689862838483450 -15.085786437626897 -17.914213562373092 -58.689862838483450
20.742640687119277 12.257359312880713 58.689862838483450 -20.742640687119277 -12.257359312880713 -58.689862838483450
22.863961030678922 10.136038969321071 58.689862838483450 -22.863961030678922 -10.136038969321071 -58.689862838483450
24.985281374238564 8.014718625761425 58.689862838483450 -24.985281374238564 -8.014718625761425 -58.689862838483450
26.399494936611660 6.600505063388333 58.689862838483450 -26.399494936611660 -6.600505063388333 -58.689862838483450
12.050252531694159 21.949747468305830 57.982756057296896 -12.050252531694159 -21.949747468305830 -57.982756057296896
9.721825406947971 25.278174593052022 57.275649276110357 -9.721825406947971 -25.278174593052022 -57.275649276110357
10.428932188134517 24.571067811865472 57.275649276110357 -10.428932188134517 -24.571067811865472 -57.275649276110357
8.807611844574872 27.192388155425114 56.568542494923804 -8.807611844574872 -27.192388155425114 -56.568542494923804
9.514718625761422 26.485281374238568 56.568542494923804 -9.514718625761422 -26.485281374238568 -56.568542494923804
10.221825406947971 25.778174593052022 56.568542494923804 -10.221825406947971 -25.778174593052022 -56.568542494923804
