ply 
format ascii 1.0 
element vertex 418
property double x 
property double y
property double z 
property double nx
property double ny
property double nz
end_header
3.708676290468789 19.769711651489970 28.466821255215926 14.046643334961539 -3.958323350648072 -18.466821255215926
29.962043024714166 19.769711651489970 -17.574038153761421 -12.206723399283838 -3.958323350648072 27.574038153761421
3.177941717392118 20.561376321619584 28.164186387744099 14.577377908038210 -4.749988020777685 -18.164186387744099
29.431308451637495 20.561376321619584 -17.876673021233248 -11.675988826207167 -4.749988020777685 27.876673021233248
3.142553686471020 21.353040991749200 26.992856059725526 14.612765938959308 -5.541652690907302 -16.992856059725526
28.900573878560824 21.353040991749200 -18.179307888705079 -11.145254253130496 -5.541652690907302 28.179307888705079
2.611819113394349 22.144705661878817 26.690221192253695 15.143500512035979 -6.333317361036919 -16.690221192253695
28.369839305484152 22.144705661878817 -18.481942756176910 -10.614519680053824 -6.333317361036919 28.481942756176910
2.576431082473251 22.936370332008430 25.518890864235125 15.178888542957077 -7.124982031166532 -15.518890864235125
27.839104732407481 22.936370332008430 -18.784577623648740 -10.083785106977153 -7.124982031166532 28.784577623648740
2.045696509396580 23.728035002138043 25.216255996763294 15.709623116033749 -7.916646701296145 -15.216255996763294
2.541043051552151 23.728035002138043 24.347560536216548 15.214276573878177 -7.916646701296145 -14.347560536216548
1.514961936319910 24.519699672267659 24.913621129291464 16.240357689110418 -8.708311371425761 -14.913621129291464
2.010308478475480 24.519699672267659 24.044925668744721 15.745011146954848 -8.708311371425761 -14.044925668744721
26.777635586254139 24.519699672267659 -19.389847358592398 -9.022315960823811 -8.708311371425761 29.389847358592398
1.479573905398809 25.311364342397273 23.742290801272890 16.275745720031519 -9.499976041555374 -13.742290801272890
25.256207928866321 25.311364342397273 -17.955091304970743 -7.500888303435993 -9.499976041555374 27.955091304970743
25.751554471021894 25.311364342397273 -18.823786765517486 -7.996234845591566 -9.499976041555374 28.823786765517486
1.444185874477711 26.103029012526889 22.570960473254317 16.311133750952617 -10.291640711684991 -12.570960473254317
24.690085324868551 26.894693682656502 -19.429056500461144 -6.934765699438223 -11.083305381814604 29.429056500461144
0.382716728324368 27.686358352786115 21.965690738310659 17.372602897105960 -11.874970051944217 -11.965690738310659
22.637923094404066 28.478023022915732 -18.296935314311320 -4.882603468973738 -12.666634722073834 28.296935314311320
22.602535063482964 29.269687693045348 -19.468265642329889 -4.847215438052636 -13.458299392203450 29.468265642329889
20.055026290862905 30.853017033304575 -17.467448995633326 -2.299706665432577 -15.041628732462677 27.467448995633326
20.550372833018479 30.853017033304575 -18.336144456180069 -2.795053207588150 -15.041628732462677 28.336144456180069
19.028945175630660 31.644681703434191 -16.901388402558414 -1.273625550200332 -15.833293402592293 26.901388402558414
19.524291717786234 31.644681703434191 -17.770083863105157 -1.768972092355906 -15.833293402592293 27.770083863105157
18.002864060398416 32.436346373563808 -16.335327809483502 -0.247544434968088 -16.624958072721910 26.335327809483502
18.498210602553989 32.436346373563808 -17.204023270030241 -0.742890977123661 -16.624958072721910 27.204023270030241
-0.360346030278890 33.228011043693421 14.635073902727399 18.115665655709218 -17.416622742851523 -4.635073902727399
0.135000511876683 33.228011043693421 13.766378442180656 17.620319113553645 -17.416622742851523 -3.766378442180656
16.481436403010598 33.228011043693421 -14.900571755861844 1.273883222419730 -17.416622742851523 24.900571755861844
17.472129487321745 33.228011043693421 -16.637962676955329 0.283190138108584 -17.416622742851523 26.637962676955329
0.594959023111155 34.019675713823034 11.726352653615340 17.160360602319173 -18.208287412981136 -1.726352653615340
0.028836419113386 35.603005054082260 10.252387458124939 17.726483206316942 -19.791616753240362 -0.252387458124939
11.421806888691570 35.603005054082260 -9.727608134450136 6.333512736738758 -19.791616753240362 19.727608134450136
11.917153430847144 35.603005054082260 -10.596303594996879 5.838166194583184 -19.791616753240362 20.596303594996879
12.412499973002717 35.603005054082260 -11.464999055543622 5.342819652427611 -19.791616753240362 21.464999055543622
12.907846515158290 35.603005054082260 -12.333694516090365 4.847473110272038 -19.791616753240362 22.333694516090365
13.403193057313864 35.603005054082260 -13.202389976637107 4.352126568116464 -19.791616753240362 23.202389976637107
13.898539599469437 35.603005054082260 -14.071085437183847 3.856780025960891 -19.791616753240362 24.071085437183847
0.488794930347861 36.394669724211880 8.212361669559623 17.266524695082467 -20.583281423369982 1.787638330440377
0.984141472503435 36.394669724211880 7.343666209012882 16.771178152926893 -20.583281423369982 2.656333790987118
10.395725773459326 36.394669724211880 -9.161547541375224 7.359593851971002 -20.583281423369982 19.161547541375224
0.948753441582337 37.186334394341493 6.172335880994309 16.806566183847991 -21.374946093499595 3.827664119005691
1.939446525893484 37.186334394341493 4.434944959900824 15.815873099536844 -21.374946093499595 5.565055040099176
8.378951573915936 37.186334394341493 -6.858096027206827 9.376368051514392 -21.374946093499595 16.858096027206827
8.874298116071508 37.186334394341493 -7.726791487753569 8.881021509358821 -21.374946093499595 17.726791487753569
9.369644658227081 37.186334394341493 -8.595486948300312 8.385674967203247 -21.374946093499595 18.595486948300312
1.904058494972386 37.977999064471106 3.263614631882253 15.851261130457942 -22.166610763629208 6.736385368117747
2.399405037127959 37.977999064471106 2.394919171335511 15.355914588302369 -22.166610763629208 7.605080828664489
2.894751579283533 37.977999064471106 1.526223710788768 14.860568046146795 -22.166610763629208 8.473776289211232
3.390098121439106 37.977999064471106 0.657528250242025 14.365221503991222 -22.166610763629208 9.342471749757975
3.885444663594679 37.977999064471106 -0.211167210304717 13.869874961835649 -22.166610763629208 10.211167210304717
4.380791205750253 37.977999064471106 -1.079862670851458 13.374528419680075 -22.166610763629208 11.079862670851458
4.876137747905826 37.977999064471106 -1.948558131398201 12.879181877524502 -22.166610763629208 11.948558131398201
5.371484290061399 37.977999064471106 -2.817253591944944 12.383835335368929 -22.166610763629208 12.817253591944944
6.362177374372544 37.977999064471106 -4.554644513038429 11.393142251057784 -22.166610763629208 14.554644513038429
6.857523916528118 37.977999064471106 -5.423339973585172 10.897795708902210 -22.166610763629208 15.423339973585172
7.352870458683691 37.977999064471106 -6.292035434131915 10.402449166746637 -22.166610763629208 16.292035434131915
8.838910085150410 37.977999064471106 -8.898121815772143 8.916409540279918 -22.166610763629208 18.898121815772143
35.403557289814586 -5.147757374755248 15.486966569153052 -15.894525088201760 21.730881326532245 -4.486966569153052
35.385126989459273 -4.342909918217018 14.324262438373106 -15.876094787846448 20.926033869994015 -3.324262438373106
35.881801408124062 -4.342909918217018 13.456325504118087 -16.372769206511236 20.926033869994015 -2.456325504118087
27.916580409132180 -3.538062461678784 26.180612321418412 -8.407548207519355 20.121186413455781 -15.180612321418412
28.413254827796965 -3.538062461678784 25.312675387163395 -8.904222626184140 20.121186413455781 -14.312675387163395
28.909929246461751 -3.538062461678784 24.444738452908378 -9.400897044848925 20.121186413455781 -13.444738452908378
33.379999014444820 -3.538062461678784 16.633306044613228 -13.870966812831995 20.121186413455781 -5.633306044613228
33.876673433109602 -3.538062461678784 15.765369110358208 -14.367641231496776 20.121186413455781 -4.765369110358208
35.863371107768742 -3.538062461678784 12.293621373338141 -16.354338906155917 20.121186413455781 -1.293621373338141
36.360045526433531 -3.538062461678784 11.425684439083124 -16.851013324820705 20.121186413455781 -0.425684439083124
27.401475690112086 -2.733215005140554 25.885845124893482 -7.892443488499261 19.316338956917551 -14.885845124893482
28.891498946106442 -2.733215005140554 23.282034322128432 -9.382466744493616 19.316338956917551 -12.282034322128432
30.381522202100797 -2.733215005140554 20.678223519363382 -10.872490000487971 19.316338956917551 -9.678223519363382
31.871545458095152 -2.733215005140554 18.074412716598331 -12.362513256482327 19.316338956917551 -7.074412716598331
32.368219876759937 -2.733215005140554 17.206475782343311 -12.859187675147112 19.316338956917551 -6.206475782343311
34.851591970083859 -2.733215005140554 12.866791111068228 -15.342559768471034 19.316338956917551 -1.866791111068228
35.844940807413437 -2.733215005140554 11.130917242558194 -16.335908605800611 19.316338956917551 -0.130917242558194
36.341615226078218 -2.733215005140554 10.262980308303177 -16.832583024465393 19.316338956917551 0.737019691696823
37.334964063407789 -2.733215005140554 8.527106439793144 -17.825931861794963 19.316338956917551 2.472893560206856
28.873068645751129 -1.928367548602324 22.119330191348482 -9.364036444138303 18.511491500379321 -11.119330191348482
29.369743064415914 -1.928367548602324 21.251393257093468 -9.860710862803089 18.511491500379321 -10.251393257093468
30.363091901745484 -1.928367548602324 19.515519388583435 -10.854059700132659 18.511491500379321 -8.515519388583435
30.859766320410269 -1.928367548602324 18.647582454328415 -11.350734118797444 18.511491500379321 -7.647582454328415
37.298103462697163 -1.123520092064091 6.201698178233247 -17.789071261084338 17.706644043841088 4.798301821766753
25.856161533051793 -0.318672635525861 25.001543535318689 -6.347129331438968 16.901796587302858 -14.001543535318689
25.837731232696481 0.486174821012369 23.838839404538742 -6.328699031083655 16.096949130764628 -12.838839404538742
36.764568443321757 0.486174821012369 4.744226850928370 -17.255536241708931 16.096949130764628 6.255773149071630
38.751266117980897 0.486174821012369 1.272479113908304 -19.242233916368072 16.096949130764628 9.727520886091696
24.310847375991504 2.095869734088833 24.117241945743899 -4.801815174378678 14.487254217688164 -13.117241945743899
23.280637937951308 3.705564647165296 23.527707552694039 -3.771605736338483 12.877559304611701 -12.527707552694039
20.282161125607285 4.510412103703528 27.572625027444193 -0.773128923994459 12.072711848073469 -16.572625027444193
21.772184381601640 4.510412103703528 24.968814224679143 -2.263152179988815 12.072711848073469 -13.968814224679143
22.268858800266429 4.510412103703528 24.100877290424123 -2.759826598653603 12.072711848073469 -13.100877290424123
38.162440197539553 4.510412103703528 -3.673104605736416 -18.653407995926727 12.072711848073469 14.673104605736416
38.659114616204334 4.510412103703528 -4.541041539991433 -19.150082414591509 12.072711848073469 15.541041539991433
38.144009897184240 5.315259560241760 -4.835808736516363 -18.634977695571415 11.267864391535237 15.835808736516363
38.640684315849029 5.315259560241760 -5.703745670771383 -19.131652114236203 11.267864391535237 16.703745670771383
15.775230756913597 6.120107016779990 33.058649174179450 3.733801444699228 10.463016934997007 -22.058649174179450
37.610474877808834 6.924954473318222 -6.293280063821243 -18.101442676196008 9.658169478458776 17.293280063821243
38.107149296473622 6.924954473318222 -7.161216998076259 -18.598117094860797 9.658169478458776 18.161216998076259
14.745021318873402 7.729801929856453 32.469114781129591 4.764010882739424 8.853322021920544 -21.469114781129591
38.088718996118310 7.729801929856453 -8.323921128856206 -18.579686794505484 8.853322021920544 19.323921128856206
13.236567762523734 8.534649386394683 33.910221453114687 6.272464439089092 8.048474565382314 -22.910221453114687
13.218137462168423 9.339496842932915 32.747517322334744 6.290894739444402 7.243627108844082 -21.747517322334744
37.058509558078114 9.339496842932915 -8.913455521906069 -17.549477356465289 7.243627108844082 19.913455521906069
37.040079257722802 10.144344299471147 -10.076159652686016 -17.531047056109976 6.438779652305850 21.076159652686016
11.194579186798657 10.949191756009379 33.893856797794925 8.314453014814168 5.633932195767619 -22.893856797794925
36.524974538702708 10.949191756009379 -10.370926849210946 -17.015942337089882 5.633932195767619 21.370926849210946
10.679474467778562 11.754039212547610 33.599089601269995 8.829557733834264 4.829084739229387 -22.599089601269995
36.506544238347395 11.754039212547610 -11.533630979990892 -16.997512036734570 4.829084739229387 22.533630979990892
10.661044167423251 12.558886669085840 32.436385470490038 8.847988034189575 4.024237282691157 -21.436385470490038
35.494765100662512 12.558886669085840 -10.960461242260806 -15.985732899049687 4.024237282691157 21.960461242260806
35.991439519327301 12.558886669085840 -11.828398176515822 -16.482407317714475 4.024237282691157 22.828398176515822
9.649265029738366 13.363734125624072 33.009555208220135 9.859767171874459 3.219389826152925 -22.009555208220135
35.476334800307200 13.363734125624072 -12.123165373040752 -15.967302598694374 3.219389826152925 23.123165373040752
9.134160310718270 14.168581582162304 32.714788011695198 10.374871890894555 2.414542369614693 -21.714788011695198
35.457904499951887 14.168581582162304 -13.285869503820702 -15.948872298339062 2.414542369614693 24.285869503820702
8.619055591698173 14.973429038700534 32.420020815170268 10.889976609914653 1.609694913076464 -21.420020815170268
34.446125362267004 14.973429038700534 -12.712699766090616 -14.937093160654179 1.609694913076464 23.712699766090616
8.103950872678077 15.778276495238766 32.125253618645338 11.405081328934749 0.804847456538232 -21.125253618645338
34.427695061911692 15.778276495238766 -13.875403896870562 -14.918662860298866 0.804847456538232 24.875403896870562
7.588846153657979 16.583123951776997 31.830486422120408 11.920186047954846 0.000000000000000 -20.830486422120408
33.912590342891598 16.583123951776997 -14.170171093395492 -14.403558141278772 0.000000000000000 25.170171093395492
7.073741434637881 17.387971408315227 31.535719225595479 12.435290766974944 -0.804847456538230 -20.535719225595479
6.558636715617785 18.192818864853461 31.240952029070549 12.950395485995040 -1.609694913076464 -20.240952029070549
32.882380904851402 18.192818864853461 -14.759705486445352 -13.373348703238577 -1.609694913076464 25.759705486445352
6.540206415262475 18.997666321391691 30.078247898290599 12.968825786350351 -2.414542369614693 -19.078247898290599
32.367276185831308 18.997666321391691 -15.054472682970282 -12.858243984218483 -2.414542369614693 26.054472682970282
31.852171466811210 19.802513777929924 -15.349239879495215 -12.343139265198385 -3.219389826152927 26.349239879495215
5.509996977222281 20.607361234468154 29.488713505240735 13.999035224390544 -4.024237282691157 -18.488713505240735
31.337066747791113 20.607361234468154 -15.644007076020145 -11.828034546178287 -4.024237282691157 26.644007076020145
4.994892258202185 21.412208691006384 29.193946308715805 14.514139943410640 -4.829084739229387 -18.193946308715805
31.318636447435800 21.412208691006384 -16.806711206800092 -11.809604245822975 -4.829084739229387 27.806711206800092
4.976461957846873 22.217056147544618 28.031242177935859 14.532570243765953 -5.633932195767620 -17.031242177935859
30.803531728415706 22.217056147544618 -17.101478403325022 -11.294499526802880 -5.633932195767620 28.101478403325022
4.461357238826775 23.021903604082848 27.736474981410929 15.047674962786051 -6.438779652305850 -16.736474981410929
29.791752590730823 23.021903604082848 -16.528308665594935 -10.282720389117998 -6.438779652305850 27.528308665594935
3.946252519806679 23.826751060621078 27.441707784885999 15.562779681806147 -7.243627108844080 -16.441707784885999
28.779973453045940 23.826751060621078 -15.955138927864848 -9.270941251433115 -7.243627108844080 26.955138927864848
29.276647871710725 23.826751060621078 -16.823075862119865 -9.767615670097900 -7.243627108844080 27.823075862119865
3.431147800786583 24.631598517159311 27.146940588361069 16.077884400826242 -8.048474565382314 -16.146940588361069
3.927822219451368 24.631598517159311 26.279003654106049 15.581209982161457 -8.048474565382314 -15.279003654106049
28.264868734025843 24.631598517159311 -16.249906124389778 -8.755836532413017 -8.048474565382314 27.249906124389778
28.761543152690628 24.631598517159311 -17.117843058644794 -9.252510951077802 -8.048474565382314 28.117843058644794
3.412717500431270 25.436445973697541 25.984236457581119 16.096314701181555 -8.853322021920544 -14.984236457581119
27.749764015005745 25.436445973697541 -16.544673320914711 -8.240731813392919 -8.853322021920544 27.544673320914711
2.897612781411173 26.241293430235771 25.689469261056189 16.611419420201653 -9.658169478458774 -14.689469261056189
27.216228995630338 27.046140886774005 -18.002144648219588 -7.707196794017513 -10.463016934997007 29.002144648219588
2.364077762035762 27.850988343312235 24.231997933751313 17.144954439577063 -11.267864391535237 -13.231997933751313
26.701124276610241 27.850988343312235 -18.296911844744518 -7.192092074997415 -11.267864391535237 29.296911844744518
1.848973043015668 28.655835799850465 23.937230737226383 17.660059158597157 -12.072711848073467 -12.937230737226383
24.659135700885166 30.265530712926932 -18.313276500064291 -5.150103499272340 -13.682406761149934 29.313276500064291
1.278577422929636 31.875225626003392 20.154351148361609 18.230454778683189 -15.292101674226394 -9.154351148361609
21.127123869165736 32.680073082541625 -15.725830352619017 -1.618091667552910 -16.096949130764628 26.725830352619017
21.623798287830517 32.680073082541625 -16.593767286874034 -2.114766086217692 -16.096949130764628 27.593767286874034
21.108693568810423 33.484920539079852 -16.888534483398963 -1.599661367197598 -16.901796587302854 27.888534483398963
1.223286521863699 34.289767995618085 16.666238756021770 18.285745679749127 -17.706644043841088 -5.666238756021770
20.096914431125541 34.289767995618085 -16.315364745668877 -0.587882229512715 -17.706644043841088 27.315364745668877
1.701530640173175 35.094615452156319 14.635597690986806 17.807501561439651 -18.511491500379321 -3.635597690986806
0.193077083823503 35.899462908694545 16.076704362971910 19.315955117789322 -19.316338956917548 -5.076704362971910
0.689751502488292 35.899462908694545 15.208767428716891 18.819280699124533 -19.316338956917548 -4.208767428716891
18.073356155755775 35.899462908694545 -15.169025270208699 1.435676045857051 -19.316338956917548 26.169025270208699
15.571553762076537 36.704310365232779 -11.992044729713562 3.937478439536289 -20.121186413455781 22.992044729713562
16.068228180741322 36.704310365232779 -12.859981663968583 3.440804020871504 -20.121186413455781 23.859981663968583
16.564902599406107 36.704310365232779 -13.727918598223596 2.944129602206718 -20.121186413455781 24.727918598223596
17.061577018070892 36.704310365232779 -14.595855532478616 2.447455183541933 -20.121186413455781 25.595855532478616
2.142914157772022 37.509157821771012 10.279548364391946 17.366118043840803 -20.926033869994015 0.720451635608054
14.063100205726869 37.509157821771012 -10.550938057728462 5.445931995885957 -20.926033869994015 21.550938057728462
15.056449043056439 37.509157821771012 -12.286811926238496 4.452583158556386 -20.926033869994015 23.286811926238496
3.614507113411069 38.314005278309239 6.513033430846948 15.894525088201757 -21.730881326532241 4.486966569153052
12.554646649377203 38.314005278309239 -9.109831385743359 6.954385552235623 -21.730881326532241 20.109831385743359
13.051321068041988 38.314005278309239 -9.977768319998376 6.457711133570838 -21.730881326532241 20.977768319998376
13.547995486706773 38.314005278309239 -10.845705254253392 5.961036714906053 -21.730881326532241 21.845705254253392
1.609379138396616 39.118852734847472 8.822077037087068 17.899653063216210 -22.535728783070475 2.177922962912932
2.106053557061401 39.118852734847472 7.954140102832051 17.402978644551425 -22.535728783070475 3.045859897167949
2.602727975726186 39.118852734847472 7.086203168577033 16.906304225886640 -22.535728783070475 3.913796831422967
10.549518674362748 39.118852734847472 -6.800787779503239 8.959513527250078 -22.535728783070475 17.800787779503239
11.046193093027535 39.118852734847472 -7.668724713758255 8.462839108585291 -22.535728783070475 18.668724713758255
2.584297675370873 39.923700191385706 5.923499037797087 16.924734526241952 -23.340576239608708 5.076500962202913
3.080972094035658 39.923700191385706 5.055562103542070 16.428060107577167 -23.340576239608708 5.944437896457930
3.577646512700445 39.923700191385706 4.187625169287053 15.931385688912380 -23.340576239608708 6.812374830712947
4.074320931365230 39.923700191385706 3.319688235032036 15.434711270247595 -23.340576239608708 7.680311764967964
4.570995350030016 39.923700191385706 2.451751300777019 14.938036851582810 -23.340576239608708 8.548248699222981
5.067669768694801 39.923700191385706 1.583814366522002 14.441362432918025 -23.340576239608708 9.416185633477998
6.557693024689156 39.923700191385706 -1.019996436243048 12.951339176923669 -23.340576239608708 12.019996436243048
7.054367443353941 39.923700191385706 -1.887933370498065 12.454664758258884 -23.340576239608708 12.887933370498065
8.047716280683513 39.923700191385706 -3.623807239008100 11.461315920929312 -23.340576239608708 14.623807239008100
8.544390699348298 39.923700191385706 -4.491744173263116 10.964641502264527 -23.340576239608708 15.491744173263116
9.537739536677869 39.923700191385706 -6.227618041773148 9.971292664934957 -23.340576239608708 17.227618041773148
10.034413955342654 39.923700191385706 -7.095554976028168 9.474618246270172 -23.340576239608708 18.095554976028168
11.027762792672224 39.923700191385706 -8.831428844538202 8.481269408940602 -23.340576239608708 19.831428844538202
5.049239468339488 40.728547647923932 0.421110235742056 14.459792733273337 -24.145423696146935 10.578889764257944
5.545913887004273 40.728547647923932 -0.446826698512961 13.963118314608552 -24.145423696146935 11.446826698512961
7.035937142998630 40.728547647923932 -3.050637501278013 12.473095058614195 -24.145423696146935 14.050637501278013
35.768832882644865 -3.906986776086818 16.877140252047699 -14.512303927347201 21.227494851775589 -4.877140252047699
36.266960911323594 -3.906986776086818 16.010036759352253 -15.010431956025929 21.227494851775589 -4.010036759352253
36.765088940002329 -3.906986776086818 15.142933266656808 -15.508559984704664 21.227494851775589 -3.142933266656808
37.263216968681064 -3.906986776086818 14.275829773961364 -16.006688013383400 21.227494851775589 -2.275829773961364
37.761344997359799 -3.906986776086818 13.408726281265920 -16.504816042062135 21.227494851775589 -1.408726281265920
38.757601054717263 -3.906986776086818 11.674519295875029 -17.501072099419599 21.227494851775589 0.325480704124971
29.290607313834258 -3.090544666403140 26.994749444003261 -8.034078358536593 20.411052742091911 -14.994749444003261
29.788735342512989 -3.090544666403140 26.127645951307819 -8.532206387215325 20.411052742091911 -14.127645951307819
30.286863371191721 -3.090544666403140 25.260542458612374 -9.030334415894057 20.411052742091911 -13.260542458612374
30.784991399870457 -3.090544666403140 24.393438965916928 -9.528462444572792 20.411052742091911 -12.393438965916928
31.283119428549188 -3.090544666403140 23.526335473221486 -10.026590473251524 20.411052742091911 -11.526335473221486
36.762527744015259 -3.090544666403140 13.988197053571593 -15.505998788717594 20.411052742091911 -1.988197053571593
37.260655772693994 -3.090544666403140 13.121093560876149 -16.004126817396330 20.411052742091911 -1.121093560876149
37.758783801372722 -3.090544666403140 12.253990068180705 -16.502254846075058 20.411052742091911 -0.253990068180705
38.256911830051450 -3.090544666403140 11.386886575485260 -17.000382874753786 20.411052742091911 0.613113424514740
28.789918089168449 -2.274102556719463 26.707116723613492 -7.533389133870784 19.594610632408234 -14.707116723613492
29.786174146525916 -2.274102556719463 24.972909738222604 -8.529645191228251 19.594610632408234 -12.972909738222604
31.280558232562115 -2.274102556719463 22.371599260136271 -10.024029277264450 19.594610632408234 -10.371599260136271
33.273070347277049 -2.274102556719463 18.903185289354489 -12.016541391979384 19.594610632408234 -6.903185289354489
38.254350634064380 -2.274102556719463 10.232150362400045 -16.997821678766716 19.594610632408234 1.767849637599955
38.752478662743115 -2.274102556719463 9.365046869704601 -17.495949707445451 19.594610632408234 2.634953130295399
28.289228864502640 -1.457660447035789 26.419484003223722 -7.032699909204975 18.778168522724560 -14.419484003223722
32.274253093932508 -1.457660447035789 19.482656061660165 -11.017724138634843 18.778168522724560 -7.482656061660165
31.275435840587967 -0.641218337352111 20.062126833965838 -10.018906885290303 17.961726413040882 -8.062126833965838
38.747356270768968 -0.641218337352111 7.055574443534169 -17.490827315471304 17.961726413040882 4.944425556465831
27.287850415171025 0.175223772331567 25.844218562444180 -6.031321459873361 17.145284303357204 -13.844218562444180
39.242923103460626 0.175223772331567 5.033734737753511 -17.986394148162962 17.145284303357204 6.966265262246489
38.742233878794821 0.991665882015241 4.746102017363740 -17.485704923497156 16.328842193673530 7.253897982636260
25.287654712494870 2.624550101382594 25.848423893970313 -4.031125757197206 14.695957974306177 -13.848423893970313
25.785782741173602 2.624550101382594 24.981320401274871 -4.529253785875937 14.695957974306177 -12.981320401274871
40.228934376869788 3.440992211066272 -1.319417099978240 -18.972405421572123 13.879515864622499 13.319417099978240
39.728245152203982 4.257434320749947 -1.607049820368012 -18.471716196906318 13.063073754938824 13.607049820368012
40.226373180882717 4.257434320749947 -2.474153313063454 -18.969844225585053 13.063073754938824 14.474153313063454
21.793074923782513 5.073876430433623 28.453939703582783 -0.536545968484848 12.246631645255148 -16.453939703582783
23.785587038497447 5.073876430433623 24.985525732801001 -2.529058083199782 12.246631645255148 -12.985525732801001
39.723122760229842 5.890318540117301 -3.916522246538438 -18.466593804932177 11.430189535571470 15.916522246538438
39.720561564242757 6.706760649800977 -5.071258459623657 -18.464032608945093 10.613747425887794 17.071258459623657
40.218689592921493 6.706760649800977 -5.938361952319099 -18.962160637623828 10.613747425887794 17.938361952319099
16.305983020355225 7.523202759484654 34.527869483977028 4.950545934942440 9.797305316204117 -22.527869483977028
39.718000368255687 7.523202759484654 -6.225994672708872 -18.461471412958023 9.797305316204117 18.225994672708872
16.303421824368151 8.339644869168330 33.373133270891813 4.953107130929514 8.980863206520441 -21.373133270891813
39.715439172268617 8.339644869168330 -7.380730885794087 -18.458910216970953 8.980863206520441 19.380730885794087
14.806476542344875 9.156086978852006 34.819707535892931 6.450052412952790 8.164421096836765 -22.819707535892931
38.714060722936999 9.972529088535683 -7.955996326573629 -17.457531767639335 7.347978987153088 19.955996326573629
13.306970064334527 10.788971198219359 35.111545587808834 7.949558890963138 6.531536877469412 -23.111545587808834
38.213371498271187 10.788971198219359 -8.243629046963399 -16.956842542973522 6.531536877469412 20.243629046963399
12.806280839668720 11.605413307903035 34.823912867419068 8.450248115628945 5.715094767785736 -22.823912867419068
13.304408868347453 11.605413307903035 33.956809374723619 7.952120086950211 5.715094767785736 -21.956809374723619
12.305591615002911 12.421855417586713 34.536280147029295 8.950937340294754 4.898652658102058 -22.536280147029295
37.710121077618311 12.421855417586713 -9.685997980438380 -16.453592122320646 4.898652658102058 21.685997980438380
12.303030419015837 13.238297527270388 33.381543933944073 8.953498536281828 4.082210548418383 -21.381543933944073
11.304213165671296 14.054739636954064 33.961014706249756 9.952315789626368 3.265768438734707 -21.961014706249756
37.206870656965428 14.054739636954064 -11.128366913913368 -15.950341701667764 3.265768438734707 23.128366913913368
10.803523941005489 14.871181746637742 33.673381985859983 10.453005014292176 2.449326329051029 -21.673381985859983
37.204309460978351 14.871181746637742 -12.283103126998583 -15.947780505680687 2.449326329051029 24.283103126998583
10.302834716339682 15.687623856321418 33.385749265470210 10.953694238957983 1.632884219367353 -21.385749265470210
36.703620236312545 15.687623856321418 -12.570735847388352 -15.447091281014881 1.632884219367353 24.570735847388352
9.802145491673873 16.504065966005093 33.098116545080444 11.454383463623792 0.816442109683678 -21.098116545080444
36.202931011646740 16.504065966005093 -12.858368567778125 -14.946402056349076 0.816442109683678 24.858368567778125
9.799584295686799 17.320508075688771 31.943380331995225 11.456944659610866 0.000000000000000 -19.943380331995225
35.702241786980927 17.320508075688771 -13.146001288167895 -14.445712831683263 0.000000000000000 25.146001288167895
9.298895071020992 18.136950185372449 31.655747611605456 11.957633884276673 -0.816442109683678 -19.655747611605456
35.201552562315122 18.136950185372449 -13.433634008557664 -13.945023607017458 -0.816442109683678 25.433634008557664
8.798205846355184 18.953392295056123 31.368114891215683 12.458323108942480 -1.632884219367352 -19.368114891215683
34.700863337649309 18.953392295056123 -13.721266728947437 -13.444334382351645 -1.632884219367352 25.721266728947437
8.297516621689375 19.769834404739800 31.080482170825913 12.959012333608289 -2.449326329051029 -19.080482170825913
34.200174112983504 19.769834404739800 -14.008899449337207 -12.943645157685840 -2.449326329051029 26.008899449337207
7.796827397023568 20.586276514423478 30.792849450436144 13.459701558274096 -3.265768438734707 -18.792849450436144
33.699484888317699 20.586276514423478 -14.296532169726976 -12.442955933020034 -3.265768438734707 26.296532169726976
7.296138172357761 21.402718624107152 30.505216730046374 13.960390782939903 -4.082210548418381 -18.505216730046374
32.700667634973158 21.402718624107152 -13.717061397421300 -11.444138679675493 -4.082210548418381 25.717061397421300
33.198795663651893 21.402718624107152 -14.584164890116746 -11.942266708354229 -4.082210548418381 26.584164890116746
6.795448947691952 22.219160733790829 30.217584009656601 14.461080007605712 -4.898652658102058 -18.217584009656601
6.792887751704878 23.035602843474507 29.062847796571386 14.463641203592786 -5.715094767785736 -17.062847796571386
32.197417214320275 23.035602843474507 -15.159430330896289 -10.940888259022611 -5.715094767785736 27.159430330896289
5.794070498360337 23.852044953158185 29.642318568877062 15.462458456937327 -6.531536877469414 -17.642318568877062
6.292198527039071 23.852044953158185 28.775215076181617 14.964330428258593 -6.531536877469414 -16.775215076181617
31.696727989654470 23.852044953158185 -15.447063051286058 -10.440199034356805 -6.531536877469414 27.447063051286058
5.791509302373264 24.668487062841859 28.487582355791847 15.465019652924401 -7.347978987153088 -16.487582355791847
30.697910736309929 24.668487062841859 -14.867592278980382 -9.441381781012264 -7.347978987153088 26.867592278980382
31.196038764988661 24.668487062841859 -15.734695771675828 -9.939509809690996 -7.347978987153088 27.734695771675828
5.788948106386190 25.484929172525536 27.332846142706636 15.467580848911474 -8.164421096836765 -15.332846142706636
30.197221511644120 25.484929172525536 -15.155224999370155 -8.940692556346455 -8.164421096836765 27.155224999370155
30.695349540322852 25.484929172525536 -16.022328492065601 -9.438820585025187 -8.164421096836765 28.022328492065601
5.288258881720381 26.301371282209210 27.045213422316863 15.968270073577283 -8.980863206520439 -15.045213422316863
5.786386910399113 26.301371282209210 26.178109929621417 15.470142044898552 -8.980863206520439 -14.178109929621417
4.787569657054572 27.117813391892888 26.757580701927093 16.468959298243092 -9.797305316204117 -14.757580701927093
5.285697685733306 27.117813391892888 25.890477209231648 15.970831269564359 -9.797305316204117 -13.890477209231648
28.697715033633770 27.117813391892888 -14.863386947454249 -7.441186078336106 -9.797305316204117 26.863386947454249
5.283136489746232 27.934255501576565 24.735740996146433 15.973392465551433 -10.613747425887794 -12.735740996146433
28.695153837646696 27.934255501576565 -16.018123160539467 -7.438624882349032 -10.613747425887794 28.018123160539467
27.696336584302156 28.750697611260243 -15.438652388233791 -6.439807629004491 -11.430189535571472 27.438652388233791
28.194464612980887 28.750697611260243 -16.305755880929237 -6.937935657683223 -11.430189535571472 28.305755880929237
4.281758040414616 29.567139720943921 24.160475555366890 16.974770914883049 -12.246631645255150 -12.160475555366890
27.195647359636347 29.567139720943921 -15.726285108623561 -5.939118404338682 -12.246631645255150 27.726285108623561
4.276635648440468 31.200023940311269 21.851003129196464 16.979893306857196 -13.879515864622498 -9.851003129196464
26.194268910304736 31.200023940311269 -16.301550549403103 -4.937739955007071 -13.879515864622498 28.301550549403103
3.275257199108854 32.832908159678624 21.275737688416921 17.981271756188811 -15.512400083989853 -9.275737688416921
23.698506374936919 32.832908159678624 -14.275505512096309 -2.441977419639255 -15.512400083989853 26.275505512096309
22.699689121592378 33.649350269362301 -13.696034739790633 -1.443160166294714 -16.328842193673530 25.696034739790633
3.270134807134706 34.465792379045979 18.966265262246488 17.986394148162958 -17.145284303357208 -6.966265262246488
21.700871868247837 34.465792379045979 -13.116563967484957 -0.444342912950173 -17.145284303357208 25.116563967484957
22.198999896926569 34.465792379045979 -13.983667460180406 -0.942470941628905 -17.145284303357208 25.983667460180406
20.702054614903293 35.282234488729657 -12.537093195179288 0.554474340394371 -17.961726413040886 24.537093195179288
21.200182643582025 35.282234488729657 -13.404196687874730 0.056346311715640 -17.961726413040886 25.404196687874730
3.763140443839287 36.098676598413334 15.789689343380616 17.493388511458377 -18.778168522724563 -3.789689343380616
4.759396501196754 36.098676598413334 14.055482357989726 16.497132454100910 -18.778168522724563 -2.055482357989726
19.205109332880021 36.098676598413334 -11.090518930178167 2.051419622417644 -18.778168522724563 23.090518930178167
19.703237361558756 36.098676598413334 -11.957622422873612 1.553291593738908 -18.778168522724563 23.957622422873612
3.262451219173482 36.915118708097005 15.502056622990844 17.994077736124183 -19.594610632408234 -3.502056622990844
3.760579247852213 36.915118708097005 14.634953130295399 17.495949707445451 -19.594610632408234 -2.634953130295399
4.754274109222607 37.731560817780682 11.746009931819295 16.502254846075058 -20.411052742091911 0.253990068180705
15.713090740154739 37.731560817780682 -7.330266907480485 5.543438215142926 -20.411052742091911 19.330266907480485
4.751712913235533 38.548002927464360 10.591273718734080 16.504816042062131 -21.227494851775589 1.408726281265920
5.249840941914265 38.548002927464360 9.724170226038636 16.006688013383400 -21.227494851775589 2.275829773961364
14.714273486810200 38.548002927464360 -6.750796135174813 6.542255468487465 -21.227494851775589 18.750796135174813
15.212401515488931 38.548002927464360 -7.617899627870258 6.044127439808733 -21.227494851775589 19.617899627870258
4.749151717248456 39.364445037148037 9.436537505648865 16.507377238049209 -22.043936961459266 2.563462494351135
5.247279745927191 39.364445037148037 8.569434012953421 16.009249209370473 -22.043936961459266 3.430565987046579
6.243535803284656 39.364445037148037 6.835227027562532 15.012993152013008 -22.043936961459266 5.164772972437468
12.719200176108190 39.364445037148037 -4.437118377478249 8.537328779189474 -22.043936961459266 16.437118377478249
13.217328204786924 39.364445037148037 -5.304221870173691 8.039200750510741 -22.043936961459266 17.304221870173691
6.240974607297582 40.180887146831708 5.680490814477317 15.015554348000082 -22.860379071142937 6.319509185522683
6.739102635976316 40.180887146831708 4.813387321781872 14.517426319321348 -22.860379071142937 7.186612678218128
7.237230664655049 40.180887146831708 3.946283829086427 14.019298290642615 -22.860379071142937 8.053716170913573
7.735358693333783 40.180887146831708 3.079180336390984 13.521170261963881 -22.860379071142937 8.920819663609016
10.724126865406182 40.180887146831708 -2.123440619781686 10.532402089891482 -22.860379071142937 14.123440619781686
11.222254894084916 40.180887146831708 -2.990544112477130 10.034274061212749 -22.860379071142937 14.990544112477130
12.218510951442383 40.180887146831708 -4.724751097868019 9.038018003855282 -22.860379071142937 16.724751097868019
7.732797497346709 40.997329256515386 1.924444123305769 13.523731457950955 -23.676821180826614 10.075555876694231
8.230925526025443 40.997329256515386 1.057340630610323 13.025603429272222 -23.676821180826614 10.942659369389677
8.729053554704176 40.997329256515386 0.190237137914879 12.527475400593488 -23.676821180826614 11.809762862085121
9.227181583382908 40.997329256515386 -0.676866354780564 12.029347371914756 -23.676821180826614 12.676866354780564
9.725309612061642 40.997329256515386 -1.543969847476010 11.531219343236023 -23.676821180826614 13.543969847476010
37.166934949764098 -3.467028434534207 17.711087189929493 -14.169681837676048 21.494784811854153 -4.711087189929493
37.666643644341178 -3.467028434534207 16.844893666192405 -14.669390532253129 21.494784811854153 -3.844893666192405
38.166352338918259 -3.467028434534207 15.978700142455320 -15.169099226830209 21.494784811854153 -2.978700142455320
38.666061033495339 -3.467028434534207 15.112506618718236 -15.668807921407289 21.494784811854153 -2.112506618718236
39.165769728072419 -3.467028434534207 14.246313094981149 -16.168516615984370 21.494784811854153 -1.246313094981149
30.683101547379703 -2.640305941770585 27.824268407038339 -7.685848435291653 20.668062319090531 -14.824268407038339
31.182810241956787 -2.640305941770585 26.958074883301254 -8.185557129868737 20.668062319090531 -13.958074883301254
31.682518936533867 -2.640305941770585 26.091881359564169 -8.685265824445818 20.668062319090531 -13.091881359564169
32.182227631110948 -2.640305941770585 25.225687835827081 -9.184974519022898 20.668062319090531 -12.225687835827081
38.678440660613006 -2.640305941770585 13.965172027244966 -15.681187548524957 20.668062319090531 -0.965172027244966
39.178149355190087 -2.640305941770585 13.098978503507880 -16.180896243102037 20.668062319090531 -0.098978503507880
29.196355090766126 -1.813583449006963 29.275514386776329 -6.199101978678076 19.841339826326909 -16.275514386776329
29.696063785343206 -1.813583449006963 28.409320863039241 -6.698810673255156 19.841339826326909 -15.409320863039241
30.195772479920290 -1.813583449006963 27.543127339302156 -7.198519367832240 19.841339826326909 -14.543127339302156
34.693150731114017 -1.813583449006963 19.747385625668386 -11.695897619025967 19.841339826326909 -6.747385625668386
37.691402898576506 -1.813583449006963 14.550224483245870 -14.694149786488456 19.841339826326909 -1.550224483245870
38.690820287730673 -1.813583449006963 12.817837435771697 -15.693567175642624 19.841339826326909 0.182162564228303
28.709026023306709 -0.986860956243341 28.994373319040147 -5.711772911218659 19.014617333563287 -15.994373319040147
39.202908609425421 -0.986860956243341 10.804309320561345 -16.205655497337371 19.014617333563287 2.195690679438655
28.221696955847296 -0.160138463479718 28.713232251303964 -5.224443843759246 18.187894840799665 -15.713232251303964
31.719657817886862 -0.160138463479718 22.649877585144363 -8.722404705798812 18.187894840799665 -9.649877585144363
32.219366512463949 -0.160138463479718 21.783684061407278 -9.222113400375900 18.187894840799665 -8.783684061407278
32.719075207041030 -0.160138463479718 20.917490537670190 -9.721822094952980 18.187894840799665 -7.917490537670190
27.247038820928463 1.493306522047522 28.150950115831598 -4.249785708840413 16.534449855272424 -15.150950115831598
41.738590963663825 1.493306522047522 3.031337927456111 -18.741337851575775 16.534449855272424 9.968662072543889
26.759709753469050 2.320029014811144 27.869809048095416 -3.762456641381000 15.707727362508802 -14.869809048095416
26.272380686009633 3.146751507574765 27.588667980359233 -3.275127573921583 14.881004869745182 -14.588667980359233
25.785051618550217 3.973474000338385 27.307526912623050 -2.787798506462167 14.054282376981561 -14.307526912623050
40.776312455862652 3.973474000338385 1.321721200510478 -17.779059343774602 14.054282376981561 11.678278799489522
41.300780404675066 5.626918985865629 -1.839141506173146 -18.303527292587017 12.400837391454317 14.839141506173146
17.339522319210502 7.280363971392870 37.443478450260436 5.657730792877548 10.747392405927076 -24.443478450260436
23.336026654135473 7.280363971392870 27.049156165415404 -0.338773542047424 10.747392405927076 -14.049156165415404
40.825830964333321 7.280363971392870 -3.267617165382596 -17.828577852245271 10.747392405927076 16.267617165382596
17.351901946328166 8.107086464156492 36.296143858787161 5.645351165759884 9.920669913163454 -23.296143858787161
40.838210591450988 8.107086464156492 -4.414951756855867 -17.840957479362938 9.920669913163454 17.414951756855867
41.337919286028068 8.107086464156492 -5.281145280592952 -18.340666173940019 9.920669913163454 18.281145280592952
17.364281573445833 8.933808956920114 35.148809267313894 5.632971538642217 9.093947420399832 -22.148809267313894
40.850590218568648 8.933808956920114 -5.562286348329135 -17.853337106480598 9.093947420399832 18.562286348329135
16.876952505986416 9.760531449683734 34.867668199577714 6.120300606101633 8.267224927636212 -21.867668199577714
40.363261151109228 9.760531449683734 -5.843427416065317 -17.366008039021178 8.267224927636212 18.843427416065317
40.862969845686315 9.760531449683734 -6.709620939802402 -17.865716733598266 8.267224927636212 19.709620939802402
16.389623438527003 10.587253942447354 34.586527131841535 6.607629673561046 7.440502434872592 -21.586527131841535
39.875932083649815 10.587253942447354 -6.124568483801500 -16.878678971561765 7.440502434872592 19.124568483801500
14.902876981913423 11.413976435210976 36.037773111579526 8.094376130174627 6.613779942108970 -23.037773111579526
40.388020405344562 11.413976435210976 -8.138096599011856 -17.390767293256513 6.613779942108970 21.138096599011856
39.400982643308069 12.240698927974599 -7.553044143010951 -16.403729531220019 5.787057449345347 20.553044143010951
39.900691337885149 12.240698927974599 -8.419237666748039 -16.903438225797100 5.787057449345347 21.419237666748039
13.928218846994593 13.067421420738219 35.475490976107153 9.069034265093457 4.960334956581727 -22.475490976107153
14.427927541571673 13.067421420738219 34.609297452370072 8.569325570516376 4.960334956581727 -21.609297452370072
39.413362270425736 13.067421420738219 -8.700378734484222 -16.416109158337687 4.960334956581727 21.700378734484222
12.941181084958096 13.894143913501839 36.060543432108062 10.056072027129954 4.133612463818107 -23.060543432108062
13.940598474112257 13.894143913501839 34.328156384633886 9.056654637975793 4.133612463818107 -21.328156384633886
39.425741897543404 13.894143913501839 -9.847713325957489 -16.428488785455354 4.133612463818107 22.847713325957489
12.453852017498681 14.720866406265461 35.779402364371876 10.543401094589369 3.306889971054485 -22.779402364371876
38.938412830083983 14.720866406265461 -10.128854393693672 -15.941159717995934 3.306889971054485 23.128854393693672
11.966522950039266 15.547588899029083 35.498261296635690 11.030730162048783 2.480167478290863 -22.498261296635690
38.451083762624570 15.547588899029083 -10.409995461429855 -15.453830650536521 2.480167478290863 23.409995461429855
11.479193882579851 16.374311391792702 35.217120228899510 11.518059229508198 1.653444985527244 -22.217120228899510
38.463463389742238 16.374311391792702 -11.557330052903122 -15.466210277654188 1.653444985527244 24.557330052903122
10.991864815120435 17.201033884556324 34.935979161163331 12.005388296967615 0.826722492763622 -21.935979161163331
37.476425627705737 17.201033884556324 -10.972277596902220 -14.479172515617687 0.826722492763622 23.972277596902220
10.504535747661020 18.027756377319946 34.654838093427145 12.492717364427030 0.000000000000000 -21.654838093427145
37.488805254823404 18.027756377319946 -12.119612188375488 -14.491552142735355 0.000000000000000 25.119612188375488
10.017206680201605 18.854478870083568 34.373697025690959 12.980046431886445 -0.826722492763622 -21.373697025690959
37.001476187363991 18.854478870083568 -12.400753256111670 -14.004223075275942 -0.826722492763622 25.400753256111670
9.529877612742188 19.681201362847190 34.092555957954779 13.467375499345861 -1.653444985527244 -21.092555957954779
36.514147119904571 19.681201362847190 -12.681894323847853 -13.516894007816521 -1.653444985527244 25.681894323847853
9.542257239859854 20.507923855610809 32.945221366481512 13.454995872228196 -2.480167478290863 -19.945221366481512
36.026818052445158 20.507923855610809 -12.963035391584036 -13.029564940357108 -2.480167478290863 25.963035391584036
9.054928172400439 21.334646348374431 32.664080298745333 13.942324939687611 -3.306889971054485 -19.664080298745333
35.539488984985745 21.334646348374431 -13.244176459320219 -12.542235872897695 -3.306889971054485 26.244176459320219
8.567599104941024 22.161368841138053 32.382939231009146 14.429654007147025 -4.133612463818107 -19.382939231009146
34.552451222949244 22.161368841138053 -12.659124003319317 -11.555198110861195 -4.133612463818107 25.659124003319317
35.052159917526325 22.161368841138053 -13.525317527056401 -12.054906805438275 -4.133612463818107 26.525317527056401
8.080270037481608 22.988091333901671 32.101798163272960 14.916983074606442 -4.960334956581725 -19.101798163272960
34.065122155489831 22.988091333901671 -12.940265071055499 -11.067869043401782 -4.960334956581725 25.940265071055499
8.092649664599273 23.814813826665294 30.954463571799693 14.904603447488777 -5.787057449345347 -17.954463571799693
33.577793088030418 23.814813826665294 -13.221406138791682 -10.580539975942369 -5.787057449345347 26.221406138791682
7.605320597139858 24.641536319428916 30.673322504063510 15.391932514948191 -6.613779942108970 -17.673322504063510
33.090464020571005 24.641536319428916 -13.502547206527865 -10.093210908482956 -6.613779942108970 26.502547206527865
7.117991529680442 25.468258812192538 30.392181436327327 15.879261582407608 -7.440502434872592 -17.392181436327327
32.603134953111585 25.468258812192538 -13.783688274264048 -9.605881841023535 -7.440502434872592 26.783688274264048
6.630662462221029 26.294981304956160 30.111040368591144 16.366590649867021 -8.267224927636214 -17.111040368591144
32.115805885652172 26.294981304956160 -14.064829342000230 -9.118552773564122 -8.267224927636214 27.064829342000230
6.643042089338692 27.121703797719778 28.963705777117877 16.354211022749357 -9.093947420399832 -15.963705777117877
31.628476818192755 27.121703797719778 -14.345970409736413 -8.631223706104706 -9.093947420399832 27.345970409736413
30.641439056156258 27.948426290483400 -13.760917953735511 -7.644185944068209 -9.920669913163454 26.760917953735511
5.668383954419863 28.775148783247023 28.401423641645511 17.328869157668187 -10.747392405927076 -15.401423641645511
6.168092648996943 28.775148783247023 27.535230117908426 16.829160463091107 -10.747392405927076 -14.535230117908426
