ply 
format ascii 1.0 
element vertex 418
property double x 
property double y
property double z 
property double nx
property double ny
property double nz
end_header
31.122770668884961 67.374438608452536 41.462595668768600 20.971263379908073 -12.602182857935922 -11.462595668768600
30.536789827404721 68.857048356445006 39.894636871932455 21.557244221388313 -14.084792605928392 -9.894636871932455
31.078838174093740 68.857048356445006 39.054289568818021 21.015195874699295 -14.084792605928392 -9.054289568818021
30.514823580009111 69.598353230441234 38.690483821957166 21.579210468783923 -14.826097479924620 -8.690483821957166
31.056871926698129 69.598353230441234 37.850136518842731 21.037162122094905 -14.826097479924620 -7.850136518842731
29.928842738528871 71.080962978433689 37.122525025121021 22.165191310264163 -16.308707227917075 -7.122525025121021
30.470891085217890 71.080962978433689 36.282177722006594 21.623142963575145 -16.308707227917075 -6.282177722006594
31.012939431906908 71.080962978433689 35.441830418892160 21.081094616886126 -16.308707227917075 -5.441830418892160
51.068728259400586 71.080962978433689 4.348980203658108 1.025305789392448 -16.308707227917075 25.651019796341892
51.610776606089601 71.080962978433689 3.508632900543674 0.483257442703433 -16.308707227917075 26.491367099456326
50.504713665315954 71.822267852429931 3.985174456797257 1.589320383477080 -17.050012101913318 26.014825543202743
29.884910243737650 72.563572726426159 34.714218925170449 22.209123805055384 -17.791316975909545 -4.714218925170449
49.940699071231322 72.563572726426159 3.621368709936405 2.153334977561713 -17.791316975909545 26.378631290063595
47.750539437079638 73.304877600422387 5.778604872418853 4.343494611713396 -18.532621849905773 24.221395127581147
48.292587783768660 73.304877600422387 4.938257569304419 3.801446265024374 -18.532621849905773 25.061742430695581
30.383026095635447 74.046182474418629 31.465565522105443 21.711007953157587 -19.273926723902015 -1.465565522105443
32.009171135702502 74.046182474418629 28.944523612762140 20.084862913090532 -19.273926723902015 1.055476387237860
46.102428149616976 74.046182474418629 7.095493731786863 5.991605899176058 -19.273926723902015 22.904506268213137
47.186524842995013 74.046182474418629 5.414799125557998 4.907509205798021 -19.273926723902015 24.585200874442002
29.819011501550818 74.787487348414857 31.101759775244588 22.275022547242216 -20.015231597898243 -1.101759775244588
30.361059848239837 74.787487348414857 30.261412472130154 21.732974200553198 -20.015231597898243 -0.261412472130154
31.987204888306891 74.787487348414857 27.740370562786854 20.106829160486143 -20.015231597898243 2.259629437213146
32.529253234995906 74.787487348414857 26.900023259672420 19.564780813797128 -20.015231597898243 3.099976740327580
45.538413555532344 74.787487348414857 6.731687984926012 6.555620493260690 -20.015231597898243 23.268312015073988
46.622510248910388 74.787487348414857 5.050993378697143 5.471523799882647 -20.015231597898243 24.949006621302857
30.339093600844226 75.528792222411084 29.057259422154868 21.754940447948808 -20.756536471894471 0.942740577845132
30.881141947533244 75.528792222411084 28.216912119040433 21.212892101259790 -20.756536471894471 1.783087880959567
31.965238640911281 75.528792222411084 26.536217512811568 20.128795407881753 -20.756536471894471 3.463782487188432
32.507286987600295 75.528792222411084 25.695870209697134 19.586747061192739 -20.756536471894471 4.304129790302866
43.890302268069682 75.528792222411084 8.048576844294026 8.203731780723352 -20.756536471894471 21.951423155705974
44.432350614758704 75.528792222411084 7.208229541179591 7.661683434034330 -20.756536471894471 22.791770458820409
31.943272393515670 76.270097096407312 25.332064462836279 20.150761655277364 -21.497841345890699 4.667935537163721
32.485320740204685 76.270097096407312 24.491717159721844 19.608713308588349 -21.497841345890699 5.508282840278156
33.027369086893707 76.270097096407312 23.651369856607410 19.066664961899328 -21.497841345890699 6.348630143392590
41.700142633917999 76.270097096407312 10.205813006776474 10.393891414875036 -21.497841345890699 19.794186993223526
42.242190980607020 76.270097096407312 9.365465703662039 9.851843068186014 -21.497841345890699 20.634534296337961
42.784239327296035 76.270097096407312 8.525118400547605 9.309794721496999 -21.497841345890699 21.474881599452395
33.547451186187118 77.011401970403540 21.606869503517689 18.546582862605916 -22.239146219886926 8.393130496482311
34.089499532876133 77.011401970403540 20.766522200403255 18.004534515916902 -22.239146219886926 9.233477799596745
34.631547879565147 77.011401970403540 19.926174897288824 17.462486169227887 -22.239146219886926 10.073825102711176
35.173596226254169 77.011401970403540 19.085827594174390 16.920437822538865 -22.239146219886926 10.914172405825610
35.715644572943191 77.011401970403540 18.245480291059955 16.378389475849843 -22.239146219886926 11.754519708940045
36.257692919632206 77.011401970403540 17.405132987945521 15.836341129160829 -22.239146219886926 12.594867012054479
40.052031346455337 77.011401970403540 11.522701866144484 12.042002702337697 -22.239146219886926 18.477298133855516
40.594079693144351 77.011401970403540 10.682354563030053 11.499954355648683 -22.239146219886926 19.317645436969947
36.235726672236595 77.752706844399768 16.200979937970232 15.858307376556439 -22.980451093883154 13.799020062029768
36.777775018925610 77.752706844399768 15.360632634855801 15.316259029867425 -22.980451093883154 14.639367365144199
37.319823365614631 77.752706844399768 14.520285331741366 14.774210683178403 -22.980451093883154 15.479714668258634
37.861871712303653 77.752706844399768 13.679938028626932 14.232162336489381 -22.980451093883154 16.320061971373068
38.403920058992668 77.752706844399768 12.839590725512497 13.690113989800366 -22.980451093883154 17.160409274487503
38.945968405681683 77.752706844399768 11.999243422398067 13.148065643111352 -22.980451093883154 18.000756577601933
65.332471409104301 40.744370929464267 37.433135478024319 -11.688119370693720 14.933272698835950 -6.433135478024319
65.878967042656257 40.744370929464267 36.595673525152044 -12.234615004245676 14.933272698835950 -5.595673525152044
66.425462676208213 40.744370929464267 35.758211572279770 -12.781110637797632 14.933272698835950 -4.758211572279770
66.971958309760169 40.744370929464267 34.920749619407495 -13.327606271349588 14.933272698835950 -3.920749619407495
67.518453943312124 40.744370929464267 34.083287666535220 -13.874101904901543 14.933272698835950 -3.083287666535220
64.228894588695255 41.491034564406064 37.907067559351766 -10.584542550284674 14.186609063894153 -6.907067559351766
67.507868390006990 41.491034564406064 32.882295842118118 -13.863516351596409 14.186609063894153 -1.882295842118118
70.786842191318740 41.491034564406064 27.857524124884463 -17.142490152908159 14.186609063894153 3.142475875115537
71.333337824870696 41.491034564406064 27.020062172012189 -17.688985786460115 14.186609063894153 3.979937827987811
59.299848333422510 42.237698199347861 44.243233310785143 -5.655496295011929 13.439945428952356 -13.243233310785143
60.392839600526422 42.237698199347861 42.568309405040587 -6.748487562115841 13.439945428952356 -11.568309405040587
60.939335234078378 42.237698199347861 41.730847452168312 -7.294983195667797 13.439945428952356 -10.730847452168312
62.578822134734253 42.237698199347861 39.218461593551488 -8.934470096323672 13.439945428952356 -8.218461593551488
63.125317768286209 42.237698199347861 38.380999640679214 -9.480965729875628 13.439945428952356 -7.380999640679214
68.043778470253827 42.237698199347861 30.843842064828735 -14.399426431843246 13.439945428952356 0.156157935171265
68.590274103805783 42.237698199347861 30.006380111956460 -14.945922065395202 13.439945428952356 0.993619888043540
69.136769737357739 42.237698199347861 29.168918159084186 -15.492417698947158 13.439945428952356 1.831081840915814
70.776256638013606 42.237698199347861 26.656532300467362 -17.131904599603025 13.439945428952356 4.343467699532638
57.649775879461501 42.984361834289658 45.554627344984858 -4.005423841050920 12.693281794010559 -14.554627344984858
58.196271513013464 42.984361834289658 44.717165392112584 -4.551919474602883 12.693281794010559 -13.717165392112584
61.475245314325207 42.984361834289658 39.692393674878929 -7.830893275914626 12.693281794010559 -8.692393674878929
67.486697283396737 42.984361834289658 30.480312193283908 -13.842345244986156 12.693281794010559 0.519687806716092
70.219175451156516 42.984361834289658 26.293002428922531 -16.574823412745936 12.693281794010559 4.706997571077469
56.546199059052462 43.731025469231454 46.028559426312306 -2.901847020641881 11.946618159068763 -15.028559426312306
57.092694692604418 43.731025469231454 45.191097473440031 -3.448342654193837 11.946618159068763 -14.191097473440031
54.349630971539497 44.477689104173251 48.177415413384296 -0.705278933128916 11.199954524126966 -17.177415413384296
69.651508710994307 44.477689104173251 24.728480732960595 -16.007156672583726 11.199954524126966 6.271519267039405
53.246054151130451 45.224352739115055 48.651347494711743 0.398297887280130 10.453290889185162 -17.651347494711743
68.547931890585261 45.224352739115055 25.202412814288039 -14.903579852174680 10.453290889185162 5.797587185711961
69.640923157689173 45.224352739115055 23.527488908543489 -15.996571119278592 10.453290889185162 7.472511091456511
52.142477330721412 45.971016374056852 49.125279576039190 1.501874707689169 9.706627254243365 -18.125279576039190
68.537346337280127 45.971016374056852 24.001420989870937 -14.892994298869546 9.706627254243365 6.998579010129063
69.083841970832083 45.971016374056852 23.163959036998659 -15.439489932421502 9.706627254243365 7.836040963001341
50.492404876760411 46.717680008998649 50.436673610238913 3.151947161650170 8.959963619301568 -19.436673610238913
69.073256417526949 46.717680008998649 21.962967212581553 -15.428904379116368 8.959963619301568 9.037032787418447
70.166247684630861 46.717680008998649 20.288043306837004 -16.521895646220280 8.959963619301568 10.711956693162996
49.388828056351365 47.464343643940445 50.910605691566360 4.255523982059216 8.213299984359772 -19.910605691566360
50.481819323455277 47.464343643940445 49.235681785821811 3.162532714955304 8.213299984359772 -18.235681785821811
68.516175230669859 47.464343643940445 21.599437341036726 -14.871823192259278 8.213299984359772 9.400562658963274
69.609166497773771 47.464343643940445 19.924513435292173 -15.964814459363190 8.213299984359772 11.075486564707827
71.248653398429653 47.464343643940445 17.412127576675349 -17.604301360019072 8.213299984359772 13.587872423324651
49.378242503046231 48.211007278882242 49.709613867149251 4.266109535364350 7.466636349417975 -18.709613867149251
69.052085310916695 48.211007278882242 19.560983563747342 -15.407733272506114 7.466636349417975 11.439016436252658
71.238067845124519 48.211007278882242 16.211135752258244 -17.593715806713938 7.466636349417975 14.788864247741756
47.181674415533273 48.957670913824039 51.858469854221248 6.462677622877308 6.719972714476178 -20.858469854221248
47.728170049085229 48.957670913824039 51.021007901348973 5.916181989325352 6.719972714476178 -20.021007901348973
48.274665682637185 48.957670913824039 50.183545948476699 5.369686355773396 6.719972714476178 -19.183545948476699
70.134491024715473 48.957670913824039 16.685067833585691 -16.490138986304892 6.719972714476178 14.314932166414309
70.680986658267429 48.957670913824039 15.847605880713417 -17.036634619856848 6.719972714476178 15.152394119286583
71.227482291819385 48.957670913824039 15.010143927841138 -17.583130253408804 6.719972714476178 15.989856072158862
46.624593228676183 49.704334548765836 51.494939982676414 7.019758809734398 5.973309079534381 -20.494939982676414
47.717584495780102 49.704334548765836 49.820016076931864 5.926767542630479 5.973309079534381 -18.820016076931864
70.113319918105219 50.450998183707632 14.283084184751477 -16.468967879694638 5.226645444592585 16.716915815248523
44.963935221410054 51.197661818649436 51.605342192459034 8.680416817000527 4.479981809650781 -20.605342192459034
69.556238731248129 51.197661818649436 13.919554313206646 -15.911886692837548 4.479981809650781 17.080445686793354
69.545653177942995 51.944325453591233 12.718562488789544 -15.901301139532414 3.733318174708984 18.281437511210456
43.303277214143918 52.690989088533030 51.715744402241654 10.341074824266663 2.986654539767187 -20.715744402241654
69.535067624637861 52.690989088533030 11.517570664372439 -15.890715586227280 2.986654539767187 19.482429335627561
42.199700393734872 53.437652723474827 52.189676483569095 11.444651644675709 2.239990904825390 -21.189676483569095
68.977986437780771 53.437652723474827 11.154040792827608 -15.333634399370190 2.239990904825390 19.845959207172392
41.642619206877782 54.184316358416623 51.826146612024267 12.001732831532799 1.493327269883594 -20.826146612024267
68.420905250923681 54.184316358416623 10.790510921282781 -14.776553212513100 1.493327269883594 20.209489078717219
41.085538020020699 54.930979993358420 51.462616740479433 12.558814018389882 0.746663634941797 -20.462616740479433
68.410319697618561 54.930979993358420 9.589519096865676 -14.765967659207980 0.746663634941797 21.410480903134324
67.853238510761472 55.677643628300217 9.225989225320845 -14.208886472350891 0.000000000000000 21.774010774679155
39.971375646306520 56.424307263242014 50.735556997389779 13.672976392104061 -0.746663634941797 -19.735556997389779
67.296157323904382 56.424307263242014 8.862459353776014 -13.651805285493801 -0.746663634941797 22.137540646223986
38.867798825897474 57.170970898183811 51.209489078717219 14.776553212513107 -1.493327269883594 -20.209489078717219
66.739076137047292 57.170970898183811 8.498929482231183 -13.094724098636711 -1.493327269883594 22.501070517768817
66.728490583742158 57.917634533125607 7.297937657814082 -13.084138545331577 -2.239990904825390 23.702062342185918
66.171409396885082 58.664298168067404 6.934407786269251 -12.527057358474501 -2.986654539767187 24.065592213730749
65.614328210027992 59.410961803009201 6.570877914724420 -11.969976171617411 -3.733318174708984 24.429122085275580
36.639474078469121 60.157625437950998 49.755369592537903 17.004877959941460 -4.479981809650781 -18.755369592537903
36.082392891612038 60.904289072892801 49.391839720993076 17.561959146798543 -5.226645444592585 -18.391839720993076
65.593157103417724 60.904289072892801 4.168894265890209 -11.948805065007143 -5.226645444592585 26.831105734109791
36.071807338306904 61.650952707834598 48.190847896575967 17.572544700103677 -5.973309079534381 -17.190847896575967
35.514726151449821 62.397616342776395 47.827318025031133 18.129625886960760 -6.719972714476178 -16.827318025031133
34.957644964592731 63.144279977718192 47.463788153486306 18.686707073817850 -7.466636349417975 -16.463788153486306
34.400563777735641 63.890943612659989 47.100258281941478 19.243788260674940 -8.213299984359772 -16.100258281941478
33.843482590878551 64.637607247601778 46.736728410396651 19.800869447532030 -8.959963619301561 -15.736728410396651
34.389978224430507 64.637607247601778 45.899266457524377 19.254373813980074 -8.959963619301561 -14.899266457524377
33.832897037573417 65.384270882543589 45.535736585979542 19.811455000837164 -9.706627254243372 -14.535736585979542
33.265230297411208 66.877598152427183 43.971214890017606 20.379121740999373 -11.199954524126966 -12.971214890017606
32.708149110554118 67.624261787368980 43.607685018472779 20.936202927856463 -11.946618159068763 -12.607685018472779
33.254644744106074 67.624261787368980 42.770223065600504 20.389707294304507 -11.946618159068763 -11.770223065600504
32.697563557248984 68.370925422310776 42.406693194055670 20.946788481161597 -12.693281794010559 -11.406693194055670
32.140482370391894 69.117589057252573 42.043163322510843 21.503869668018687 -13.439945428952356 -11.043163322510843
32.686978003943850 69.117589057252573 41.205701369638568 20.957374034466731 -13.439945428952356 -10.205701369638568
32.129896817086767 69.864252692194370 40.842171498093734 21.514455221323814 -14.186609063894153 -9.842171498093734
32.676392450638723 69.864252692194370 40.004709545221459 20.967959587771858 -14.186609063894153 -9.004709545221459
32.108725710476506 71.357579962077963 38.440187849259530 21.535626327934075 -15.679936333777746 -7.440187849259530
32.655221344028462 71.357579962077963 37.602725896387248 20.989130694382119 -15.679936333777746 -6.602725896387248
53.968551052554794 71.357579962077963 4.941709734368519 -0.324199014144213 -15.679936333777746 26.058290265631481
32.098140157171372 72.104243597019760 37.239196024842421 21.546211881239209 -16.426599968719543 -6.239196024842421
32.644635790723328 72.104243597019760 36.401734071970147 20.999716247687253 -16.426599968719543 -5.401734071970147
52.864974232145748 72.104243597019760 5.415641815695963 0.779377806264833 -16.426599968719543 25.584358184304037
53.411469865697704 72.104243597019760 4.578179862823688 0.232882172712877 -16.426599968719543 26.421820137176312
51.761397411736702 72.850907231961557 5.889573897023411 1.882954626673879 -17.173263603661340 25.110426102976589
31.530473417009155 73.597570866903354 35.674674328880485 22.113878621401426 -17.919927238603137 -4.674674328880485
32.066383497255984 74.344234501845150 33.636220551591109 21.577968541154597 -18.666590873544934 -2.636220551591109
49.007748137366654 74.344234501845150 7.674900012550573 4.636603901043927 -18.666590873544934 23.325099987449427
49.554243770918610 74.344234501845150 6.837438059678298 4.090108267491971 -18.666590873544934 24.162561940321702
50.100739404470566 74.344234501845150 5.999976106806024 3.543612633940015 -18.666590873544934 25.000023893193976
33.695284844606718 75.090898136786947 29.922842868557176 19.949067193803863 -19.413254508486730 1.077157131442824
34.241780478158681 75.090898136786947 29.085380915684901 19.402571560251900 -19.413254508486730 1.914619084315099
47.904171316957608 75.090898136786947 8.148832093878021 5.740180721452973 -19.413254508486730 22.851167906121979
33.684699291301591 75.837561771728744 28.721851044140074 19.959652747108990 -20.159918143428527 2.278148955859926
34.231194924853547 75.837561771728744 27.884389091267796 19.413157113557034 -20.159918143428527 3.115610908732204
46.254098862996607 75.837561771728744 9.460226128077743 7.390253175413974 -20.159918143428527 21.539773871922257
46.800594496548563 75.837561771728744 8.622764175205468 6.843757541862018 -20.159918143428527 22.377235824794532
47.347090130100518 75.837561771728744 7.785302222333193 6.297261908310062 -20.159918143428527 23.214697777666807
34.220609371548420 76.584225406670541 26.683397266850690 19.423742666862161 -20.906581778370324 4.316602733149310
34.767105005100376 76.584225406670541 25.845935313978416 18.877247033310205 -20.906581778370324 5.154064686021584
44.604026409035605 76.584225406670541 10.771620162277461 9.040325629374976 -20.906581778370324 20.228379837722539
45.697017676139517 76.584225406670541 9.096696256532912 7.947334362271064 -20.906581778370324 21.903303743467088
34.756519451795242 77.330889041612338 24.644943489561310 18.887832586615339 -21.653245413312121 6.355056510438690
35.303015085347198 77.330889041612338 23.807481536689032 18.341336953063383 -21.653245413312121 7.192518463310968
35.849510718899154 77.330889041612338 22.970019583816757 17.794841319511427 -21.653245413312121 8.029980416183243
36.396006352451110 77.330889041612338 22.132557630944483 17.248345685959471 -21.653245413312121 8.867442369055517
36.942501986003073 77.330889041612338 21.295095678072208 16.701850052407508 -21.653245413312121 9.704904321927792
42.953953955074603 77.330889041612338 12.083014196477180 10.690398083335978 -21.653245413312121 18.916985803522820
43.500449588626559 77.330889041612338 11.245552243604905 10.143902449784022 -21.653245413312121 19.754447756395095
44.046945222178515 77.330889041612338 10.408090290732630 9.597406816232066 -21.653245413312121 20.591909709267370
36.931916432697946 78.077552676554149 20.094103853655106 16.712435605712635 -22.399909048253932 10.905896146344894
37.478412066249902 78.077552676554149 19.256641900782832 16.165939972160679 -22.399909048253932 11.743358099217168
38.024907699801858 78.077552676554149 18.419179947910553 15.619444338608723 -22.399909048253932 12.580820052089447
38.571403333353814 78.077552676554149 17.581717995038279 15.072948705056767 -22.399909048253932 13.418282004961721
39.117898966905770 78.077552676554149 16.744256042166004 14.526453071504811 -22.399909048253932 14.255743957833996
39.664394600457726 78.077552676554149 15.906794089293729 13.979957437952855 -22.399909048253932 15.093205910706271
40.210890234009682 78.077552676554149 15.069332136421453 13.433461804400899 -22.399909048253932 15.930667863578547
40.757385867561645 78.077552676554149 14.231870183549177 12.886966170848936 -22.399909048253932 16.768129816450823
41.303881501113601 78.077552676554149 13.394408230676902 12.340470537296980 -22.399909048253932 17.605591769323098
41.850377134665557 78.077552676554149 12.556946277804627 11.793974903745024 -22.399909048253932 18.443053722195373
67.834344193687741 41.532547699326855 36.764953226322774 -12.657570116643150 15.035994795596949 -4.764953226322774
68.385474368286481 41.532547699326855 35.930533948832881 -13.208700291241890 15.035994795596949 -3.930533948832881
68.936604542885220 41.532547699326855 35.096114671342988 -13.759830465840629 15.035994795596949 -3.096114671342988
62.875093817255433 42.284347439106703 43.076896893302305 -7.698319740210842 14.284195055817101 -11.076896893302305
66.181874864847899 42.284347439106703 38.070381228362940 -11.005100787803308 14.284195055817101 -6.070381228362940
66.733005039446653 42.284347439106703 37.235961950873047 -11.556230962402061 14.284195055817101 -5.235961950873047
68.386395563242885 42.284347439106703 34.732704118403362 -13.209621486198294 14.284195055817101 -2.732704118403362
68.937525737841625 42.284347439106703 33.898284840913469 -13.760751660797034 14.284195055817101 -1.898284840913469
69.488655912440365 42.284347439106703 33.063865563423576 -14.311881835395774 14.284195055817101 -1.063865563423576
71.142046436236598 42.284347439106703 30.560607730953894 -15.965272359192006 14.284195055817101 1.439392269046106
73.346567134631584 42.284347439106703 27.222930620994319 -18.169793057586993 14.284195055817101 4.777069379005681
60.671494313816851 43.036147178886552 45.216744172832364 -5.494720236772260 13.532395316037253 -13.216744172832364
61.773754663014344 43.036147178886552 43.547905617852578 -6.596980585969753 13.532395316037253 -11.547905617852578
62.324884837613084 43.036147178886552 42.713486340362685 -7.148110760568493 13.532395316037253 -10.713486340362685
63.427145186810577 43.036147178886552 41.044647785382892 -8.250371109765986 13.532395316037253 -9.044647785382892
64.529405536008070 43.036147178886552 39.375809230403107 -9.352631458963479 13.532395316037253 -7.375809230403107
65.080535710606810 43.036147178886552 38.541389952913214 -9.903761633562219 13.532395316037253 -6.541389952913214
70.591837456594263 43.036147178886552 30.197197178014271 -15.415063379549672 13.532395316037253 1.802802821985729
71.694097805791756 43.036147178886552 28.528358623034482 -16.517323728747165 13.532395316037253 3.471641376965518
59.570155159575762 43.787946918666393 45.687752897382637 -4.393381082531171 12.780595576257411 -13.687752897382637
60.672415508773248 43.787946918666393 44.018914342402852 -5.495641431728657 12.780595576257411 -12.018914342402852
61.223545683371995 43.787946918666393 43.184495064912952 -6.046771606327404 12.780595576257411 -11.184495064912952
61.774675857970742 43.787946918666393 42.350075787423066 -6.597901780926151 12.780595576257411 -10.350075787423066
63.428066381766975 43.787946918666393 39.846817954953380 -8.251292304722384 12.780595576257411 -7.846817954953380
72.246149175346886 43.787946918666393 26.496109515115073 -17.069375098302295 12.780595576257411 5.503890484884927
57.917685830735927 44.539746658446248 46.993180899422804 -2.740911753691336 12.028795836477556 -14.993180899422804
58.468816005334673 44.539746658446248 46.158761621932911 -3.292041928290082 12.028795836477556 -14.158761621932911
59.019946179933413 44.539746658446248 45.324342344443011 -3.843172102888822 12.028795836477556 -13.324342344443011
72.798200544902045 44.539746658446248 24.463860407195661 -17.621426467857454 12.028795836477556 7.536139592804339
56.816346676494838 45.291546398226089 47.464189623973070 -1.639572599450247 11.276996096697715 -15.464189623973070
72.247991565259696 45.291546398226089 24.100449854256038 -17.071217488215105 11.276996096697715 7.899550145743962
54.612747173056256 46.043346138005937 49.604036903503129 0.564026903988335 10.525196356917867 -17.604036903503129
55.715007522253742 46.043346138005937 47.935198348523343 -0.538233445209151 10.525196356917867 -15.935198348523343
71.697782585617347 46.043346138005937 23.737039301316415 -16.521008508572756 10.525196356917867 8.262960698683585
72.248912760216086 46.043346138005937 22.902620023826518 -17.072138683171495 10.525196356917867 9.097379976173482
53.511408018815168 46.795145877785785 50.075045628053402 1.665366058229424 9.773396617138019 -18.075045628053402
55.715928717210147 46.795145877785785 46.737368518093831 -0.539154640165556 9.773396617138019 -14.737368518093831
51.858938689975332 47.546945617565633 51.380473630093576 3.317835387069259 9.021596877358171 -19.380473630093576
52.961199039172818 47.546945617565633 49.711635075113783 2.215575037871773 9.021596877358171 -17.711635075113783
73.904145673925115 47.546945617565633 18.003702530497804 -18.727371596880523 9.021596877358171 13.996297469502196
51.308729710332983 48.298745357345481 51.017063077153949 3.868044366711608 8.269797137578323 -19.017063077153949
51.859859884931730 48.298745357345481 50.182643799664049 3.316914192112861 8.269797137578323 -18.182643799664049
52.962120234129216 48.298745357345481 48.513805244684264 2.214653842915375 8.269797137578323 -16.513805244684264
72.802806519684026 48.298745357345481 18.474711255048074 -17.626032442639435 8.269797137578323 13.525288744951926
73.905066868881519 48.298745357345481 16.805872700068285 -18.728292791836928 8.269797137578323 15.194127299931715
50.758520730690641 49.050545097125330 50.653652524214323 4.418253346353950 7.517997397798474 -18.653652524214323
72.252597540041691 49.050545097125330 18.111300702108451 -17.075823462997100 7.517997397798474 13.888699297891549
72.803727714640431 49.050545097125330 17.276881424618558 -17.626953637595840 7.517997397798474 14.723118575381442
73.354857889239184 49.050545097125330 16.442462147128662 -18.178083812194593 7.517997397798474 15.557537852871338
49.106051401850806 49.802344836905178 51.959080526254496 6.070722675193785 6.766197658018626 -19.959080526254496
49.657181576449545 49.802344836905178 51.124661248764596 5.519592500595046 6.766197658018626 -19.124661248764596
72.804648909596835 49.802344836905178 16.079051594189039 -17.627874832552244 6.766197658018626 15.920948405810961
73.355779084195575 49.802344836905178 15.244632316699146 -18.179005007150984 6.766197658018626 16.755367683300854
49.106972596807204 50.554144576685026 50.761250695824970 6.069801480237388 6.014397918238778 -18.761250695824970
72.805570104553226 50.554144576685026 14.881221763759523 -17.628796027508635 6.014397918238778 17.118778236240477
73.356700279151966 50.554144576685026 14.046802486269630 -18.179926202107374 6.014397918238778 17.953197513730370
72.255361124910877 51.305944316464874 14.517811210819900 -17.078587047866286 5.262598178458930 17.482188789180100
46.904294288325019 52.057744056244715 51.703268144925516 8.272479788719572 4.510798438679089 -19.703268144925516
72.256282319867282 52.057744056244715 13.319981380390384 -17.079508242822691 4.510798438679089 18.680018619609616
45.802955134083930 52.809543796024570 52.174276869475790 9.373818942960661 3.758998698899234 -20.174276869475790
71.706073340224947 52.809543796024570 12.956570827450761 -16.529299263180356 3.758998698899234 19.043429172549239
45.252746154441589 53.561343535804411 51.810866316536163 9.924027922603003 3.007198959119393 -19.810866316536163
71.706994535181337 53.561343535804411 11.758740997021242 -16.530220458136746 3.007198959119393 20.241259002978758
44.702537174799239 54.313143275584260 51.447455763596537 10.474236902245352 2.255399219339544 -19.447455763596537
71.156785555538988 54.313143275584260 11.395330444081619 -15.980011478494397 2.255399219339544 20.604669555918381
43.601198020558151 55.064943015364108 51.918464488146810 11.575576056486440 1.503599479559696 -19.918464488146810
71.157706750495393 55.064943015364108 10.197500613652103 -15.980932673450802 1.503599479559696 21.802499386347897
43.050989040915809 55.816742755143956 51.555053935207191 12.125785036128782 0.751799739779848 -19.555053935207191
70.607497770853044 55.816742755143956 9.834090060712480 -15.430723693808453 0.751799739779848 22.165909939287520
42.500780061273460 56.568542494923804 51.191643382267571 12.675994015771131 0.000000000000000 -19.191643382267571
70.608418965809449 56.568542494923804 8.636260230282964 -15.431644888764858 0.000000000000000 23.363739769717036
41.950571081631111 57.320342234703652 50.828232829327945 13.226202995413480 -0.751799739779848 -18.828232829327945
70.058209986167100 57.320342234703652 8.272849677343341 -14.881435909122509 -0.751799739779848 23.727150322656659
41.400362101988769 58.072141974483500 50.464822276388318 13.776411975055822 -1.503599479559696 -18.464822276388318
69.508001006524751 58.072141974483500 7.909439124403718 -14.331226929480160 -1.503599479559696 24.090560875596282
40.850153122346427 58.823941714263349 50.101411723448699 14.326620954698164 -2.255399219339544 -18.101411723448699
68.957792026882402 58.823941714263349 7.546028571464095 -13.781017949837810 -2.255399219339544 24.453971428535905
40.299944142704078 59.575741454043197 49.738001170509079 14.876829934340513 -3.007198959119393 -17.738001170509079
68.407583047240067 59.575741454043197 7.182618018524472 -13.230808970195476 -3.007198959119393 24.817381981475528
39.749735163061729 60.327541193823038 49.374590617569453 15.427038913982862 -3.758998698899234 -17.374590617569453
39.199526183419387 61.079340933602893 49.011180064629826 15.977247893625204 -4.510798438679089 -17.011180064629826
38.649317203777045 61.831140673382734 48.647769511690207 16.527456873267546 -5.262598178458930 -16.647769511690207
68.961476806708006 61.831140673382734 2.754709249746025 -13.784702729663415 -5.262598178458930 29.245290750253975
38.099108224134696 62.582940413162582 48.284358958750587 17.077665852909895 -6.014397918238778 -16.284358958750587
37.548899244492347 63.334740152942430 47.920948405810961 17.627874832552244 -6.766197658018626 -15.920948405810961
36.447560090251258 64.086539892722271 48.391957130361234 18.729213986793333 -7.517997397798467 -16.391957130361234
36.998690264850005 64.086539892722271 47.557537852871334 18.178083812194586 -7.517997397798467 -15.557537852871334
37.549820439448752 64.086539892722271 46.723118575381442 17.626953637595840 -7.517997397798467 -14.723118575381442
36.999611459806403 64.838339632502127 46.359708022441822 18.177162617238189 -8.269797137578323 -14.359708022441822
36.449402480164061 65.590139372281982 45.996297469502196 18.727371596880531 -9.021596877358178 -13.996297469502196
37.000532654762807 65.590139372281982 45.161878192012303 18.176241422281784 -9.021596877358178 -13.161878192012303
35.900114695478109 67.093738851841664 44.435057086133057 19.276659381566482 -10.525196356917860 -12.435057086133057
35.901035890434514 67.845538591621519 43.237227255703544 19.275738186610077 -11.276996096697715 -11.237227255703544
34.799696736193425 68.597338331401360 43.708235980253811 20.377077340851166 -12.028795836477556 -11.708235980253811
35.350826910792165 68.597338331401360 42.873816702763918 19.825947166252426 -12.028795836477556 -10.873816702763918
35.901957085390912 68.597338331401360 42.039397425274018 19.274816991653680 -12.028795836477556 -10.039397425274018
35.351748105748570 69.349138071181216 41.675986872334398 19.825025971296022 -12.780595576257411 -9.675986872334398
35.902878280347309 69.349138071181216 40.841567594844506 19.273895796697282 -12.780595576257411 -8.841567594844506
35.352669300704967 70.100937810961057 40.478157041904879 19.824104776339624 -13.532395316037253 -8.478157041904879
35.903799475303714 70.100937810961057 39.643737764414986 19.272974601740877 -13.532395316037253 -7.643737764414986
35.353590495661365 70.852737550740912 39.280327211475367 19.823183581383226 -14.284195055817108 -7.280327211475367
35.905641865216509 71.604537290520753 37.248078103555954 19.271132211828082 -15.035994795596949 -5.248078103555954
34.804302710975421 72.356337030300608 37.719086828106228 20.372471366069171 -15.787794535376804 -5.719086828106228
35.355432885574160 72.356337030300608 36.884667550616328 19.821341191470431 -15.787794535376804 -4.884667550616328
55.747249345727724 72.356337030300608 6.011154283490246 -0.570475268683133 -15.787794535376804 25.988845716509754
56.298379520326463 72.356337030300608 5.176735006000349 -1.121605443281872 -15.787794535376804 26.823264993999651
56.849509694925210 72.356337030300608 4.342315728510457 -1.672735617880619 -15.787794535376804 27.657684271489543
35.356354080530565 73.108136770080449 35.686837720186816 19.820419996514026 -16.539594275156645 -3.686837720186816
54.645910191486635 73.108136770080449 6.482163008040516 0.530863885557956 -16.539594275156645 25.517836991959484
55.197040366085375 73.108136770080449 5.647743730550623 -0.020266289040784 -16.539594275156645 26.352256269449377
34.806145100888216 73.859936509860290 35.323427167247189 20.370628976156375 -17.291394014936486 -3.323427167247189
35.908405450085709 73.859936509860290 33.654588612267403 19.268368626958882 -17.291394014936486 -1.654588612267403
37.010665799283196 73.859936509860290 31.985750057287618 18.166108277761396 -17.291394014936486 0.014249942712382
53.544571037245539 73.859936509860290 6.953171732590789 1.632203039799052 -17.291394014936486 25.046828267409211
34.255936121245874 74.611736249640146 34.960016614307570 20.920837955798717 -18.043193754716341 -2.960016614307570
35.358196470443360 74.611736249640146 33.291178059327777 19.818577606601231 -18.043193754716341 -1.291178059327777
35.909326645042107 74.611736249640146 32.456758781837884 19.267447432002484 -18.043193754716341 -0.456758781837884
52.443231883004451 74.611736249640146 7.424180457141063 2.733542194040140 -18.043193754716341 24.575819542858937
36.461378014597251 75.363535989419987 30.424509673918475 18.715396062447340 -18.794993494496183 1.575490326081525
37.012508189195998 75.363535989419987 29.590090396428579 18.164265887848593 -18.794993494496183 2.409909603571421
50.790762554164615 75.363535989419987 8.729608459181225 4.386011522879976 -18.794993494496183 23.270391540818775
51.341892728763362 75.363535989419987 7.895189181691329 3.834881348281229 -18.794993494496183 24.104810818308671
37.013429384152396 76.115335729199842 28.392260565999063 18.163344692892196 -19.546793234276038 3.607739434000937
37.564559558751142 76.115335729199842 27.557841288509170 17.612214518293449 -19.546793234276038 4.442158711490830
48.587163050726033 76.115335729199842 10.869455738711288 6.589611026318558 -19.546793234276038 21.130544261288712
49.138293225324780 76.115335729199842 10.035036461221392 6.038480851719811 -19.546793234276038 21.964963538778608
49.689423399923527 76.115335729199842 9.200617183731495 5.487350677121064 -19.546793234276038 22.799382816268505
37.014350579108793 76.867135468979683 27.194430735569547 18.162423497935798 -20.298592974055879 4.805569264430453
37.565480753707540 76.867135468979683 26.360011458079654 17.611293323337051 -20.298592974055879 5.639988541920346
38.667741102905026 76.867135468979683 24.691172903099861 16.509032974139565 -20.298592974055879 7.308827096900139
39.770001452102520 76.867135468979683 23.022334348120076 15.406772624942072 -20.298592974055879 8.977665651879924
45.832433372688712 76.867135468979683 13.843722295731240 9.344340704355879 -20.298592974055879 18.156277704268760
46.383563547287451 76.867135468979683 13.009303018241347 8.793210529757140 -20.298592974055879 18.990696981758653
46.934693721886198 76.867135468979683 12.174883740751451 8.242080355158393 -20.298592974055879 19.825116259248549
47.485823896484945 76.867135468979683 11.340464463261554 7.690950180559646 -20.298592974055879 20.659535536738446
48.588084245682438 76.867135468979683 9.671625908281769 6.588689831362153 -20.298592974055879 22.328374091718231
38.668662297861431 77.618935208759538 23.493343072670346 16.508111779183160 -21.050392713835734 8.506656927329654
39.770922647058917 77.618935208759538 21.824504517690556 15.405851429985674 -21.050392713835734 10.175495482309444
40.873182996256403 77.618935208759538 20.155665962710771 14.303591080788188 -21.050392713835734 11.844334037289229
41.424313170855150 77.618935208759538 19.321246685220878 13.752460906189441 -21.050392713835734 12.678753314779122
41.975443345453897 77.618935208759538 18.486827407730981 13.201330731590694 -21.050392713835734 13.513172592269019
42.526573520052644 77.618935208759538 17.652408130241085 12.650200556991948 -21.050392713835734 14.347591869758915
43.628833869250130 77.618935208759538 15.983569575261299 11.547940207794461 -21.050392713835734 16.016430424738701
44.179964043848877 77.618935208759538 15.149150297771406 10.996810033195715 -21.050392713835734 16.850849702228594
44.731094218447623 77.618935208759538 14.314731020281510 10.445679858596968 -21.050392713835734 17.685268979718490
39.220713667416575 78.370734948539379 21.461093964750937 15.956060409628016 -21.802192453615575 10.538906035249063
39.771843842015315 78.370734948539379 20.626674687261040 15.404930235029276 -21.802192453615575 11.373325312738960
40.322974016614062 78.370734948539379 19.792255409771148 14.853800060430530 -21.802192453615575 12.207744590228852
69.226431067913154 42.311083955326133 37.775280047357114 -12.535642124784701 15.134542510054153 -4.775280047357114
70.338343486993793 42.311083955326133 36.112856884532967 -13.647554543865340 15.134542510054153 -3.112856884532967
75.341949372856647 42.311083955326133 28.631952651824292 -18.651160429728193 15.134542510054153 4.368047348175708
68.127086183564643 43.067811080828839 38.243045889189524 -11.436297240436190 14.377815384551447 -5.243045889189524
70.350911021725921 43.067811080828839 34.918199563541222 -13.660122078597468 14.377815384551447 -1.918199563541222
71.462823440806559 43.067811080828839 33.255776400717075 -14.772034497678106 14.377815384551447 -0.255776400717075
63.692004041974236 43.824538206331546 43.698081219494384 -7.001215098845783 13.621088259048740 -10.698081219494384
64.247960251514556 43.824538206331546 42.866869638082306 -7.557171308386103 13.621088259048740 -9.866869638082306
64.803916461054868 43.824538206331546 42.035658056670229 -8.113127517926415 13.621088259048740 -9.035658056670229
65.359872670595195 43.824538206331546 41.204446475258159 -8.669083727466742 13.621088259048740 -8.204446475258159
65.915828880135507 43.824538206331546 40.373234893846082 -9.225039937007054 13.621088259048740 -7.373234893846082
66.471785089675819 43.824538206331546 39.542023312434011 -9.780996146547366 13.621088259048740 -6.542023312434011
67.027741299216146 43.824538206331546 38.710811731021934 -10.336952356087693 13.621088259048740 -5.710811731021934
69.807522346917736 43.824538206331546 34.554753823961562 -13.116733403789283 13.621088259048740 -1.554753823961562
70.363478556458048 43.824538206331546 33.723542242549485 -13.672689613329595 13.621088259048740 -0.723542242549485
72.587303394619326 43.824538206331546 30.398695916901186 -15.896514451490873 13.621088259048740 2.601304083098814
73.143259604159638 43.824538206331546 29.567484335489109 -16.452470661031185 13.621088259048740 3.432515664510891
74.255172023240277 43.824538206331546 27.905061172664961 -17.564383080111824 13.621088259048740 5.094938827335039
62.036702948085413 44.581265331834253 44.997058642738864 -5.345914004956960 12.864361133546033 -11.997058642738864
62.592659157625732 44.581265331834253 44.165847061326787 -5.901870214497279 12.864361133546033 -11.165847061326787
63.148615367166052 44.581265331834253 43.334635479914716 -6.457826424037599 12.864361133546033 -10.334635479914716
70.376046091190176 44.581265331834253 32.528884921557740 -13.685257148061723 12.864361133546033 0.471115078442260
73.711783348432093 44.581265331834253 27.541615433085294 -17.020994405303639 12.864361133546033 5.458384566914706
74.267739557972405 44.581265331834253 26.710403851673220 -17.576950614843952 12.864361133546033 6.289596148326780
60.381401854196589 45.337992457336966 46.296036065983344 -3.690612911068136 12.107634008043320 -13.296036065983344
60.937358063736909 45.337992457336966 45.464824484571274 -4.246569120608456 12.107634008043320 -12.464824484571274
58.170144550767446 46.094719582839673 48.426225070639902 -1.479355607638993 11.350906882540613 -15.426225070639902
58.726100760307766 46.094719582839673 47.595013489227831 -2.035311817179313 11.350906882540613 -14.595013489227831
73.736918417896348 46.094719582839673 25.152300791101808 -17.046129474767895 11.350906882540613 7.847699208898192
57.070799666418949 46.851446708342380 48.893990912472312 -0.380010723290496 10.594179757037907 -15.893990912472312
57.626755875959262 46.851446708342380 48.062779331060241 -0.935966932830809 10.594179757037907 -15.062779331060241
58.182712085499581 46.851446708342380 47.231567749648164 -1.491923142371128 10.594179757037907 -14.231567749648164
55.971454782070438 47.608173833845086 49.361756754304722 0.719334161058015 9.837452631535200 -16.361756754304722
56.527410991610758 47.608173833845086 48.530545172892644 0.163377951517695 9.837452631535200 -15.530545172892644
57.083367201151077 47.608173833845086 47.699333591480574 -0.392578258022624 9.837452631535200 -14.699333591480574
72.650141068279979 47.608173833845086 24.425409311942474 -15.959352125151526 9.837452631535200 8.574590688057526
55.428066107262254 48.364900959347793 48.998311014725054 1.262722835866199 9.080725506032493 -15.998311014725054
55.984022316802573 48.364900959347793 48.167099433312977 0.706766626325880 9.080725506032493 -15.167099433312977
53.216808803833111 49.121628084850499 51.128500019381612 3.473980139295342 8.323998380529787 -18.128500019381612
73.231232347284561 49.121628084850499 21.204883088546914 -16.540443404156107 8.323998380529787 11.795116911453086
72.687843672476362 49.878355210353206 20.841437348967247 -15.997054729347909 7.567271255027080 12.158562651032753
73.799756091557001 49.878355210353206 19.179014186143100 -17.108967148428547 7.567271255027080 13.820985813856900
74.355712301097313 49.878355210353206 18.347802604731022 -17.664923357968860 7.567271255027080 14.652197395268978
51.574075244676422 50.635082335855920 51.232820121634347 5.116713698452031 6.810544129524366 -18.232820121634347
52.130031454216734 50.635082335855920 50.401608540222277 4.560757488911719 6.810544129524366 -17.401608540222277
51.030686569868230 51.391809461358626 50.869374382054687 5.660102373260223 6.053817004021660 -17.869374382054687
73.268934951480944 51.391809461358626 17.620911125571688 -16.578146008352491 6.053817004021660 15.379088874428312
49.931341685519726 52.148536586861333 51.337140223887090 6.759447257608727 5.297089878518953 -18.337140223887090
73.281502486213071 52.148536586861333 16.426253804579950 -16.590713543084618 5.297089878518953 16.573746195420050
48.276040591630903 52.905263712364039 52.636117647131577 8.414748351497551 4.540362753016247 -19.636117647131577
49.387953010711541 52.905263712364039 50.973694484307430 7.302835932416912 4.540362753016247 -17.973694484307430
72.738113811404887 52.905263712364039 16.062808065000283 -16.047324868276434 4.540362753016247 16.937191934999717
48.288608126363037 53.661990837866746 51.441460326139833 8.402180816765416 3.783635627513540 -18.441460326139833
72.750681346137014 53.661990837866746 14.868150744008538 -16.059892403008561 3.783635627513540 18.131849255991462
47.189263242014533 54.418717963369453 51.909226167972243 9.501525701113920 3.026908502010834 -18.909226167972243
72.207292671328830 54.418717963369453 14.504705004428871 -15.516503728200377 3.026908502010834 18.495294995571129
46.089918357666022 55.175445088872166 52.376992009804653 10.600870585462431 2.270181376508120 -19.376992009804653
72.219860206060957 55.175445088872166 13.310047683437130 -15.529071262932504 2.270181376508120 19.689952316562870
45.546529682857837 55.932172214374873 52.013546270224978 11.144259260270616 1.513454251005413 -19.013546270224978
71.676471531252773 55.932172214374873 12.946601943857463 -14.985682588124320 1.513454251005413 20.053398056142537
45.003141008049653 56.688899339877580 51.650100530645318 11.687647935078800 0.756727125502707 -18.650100530645318
71.133082856444588 56.688899339877580 12.583156204277795 -14.442293913316135 0.756727125502707 20.416843795722205
44.459752333241461 57.445626465380286 51.286654791065644 12.231036609886992 0.000000000000000 -18.286654791065644
71.145650391176716 57.445626465380286 11.388498883286054 -14.454861448048263 0.000000000000000 21.611501116713946
43.916363658433276 58.202353590882993 50.923209051485983 12.774425284695177 -0.756727125502707 -17.923209051485983
70.602261716368531 58.202353590882993 11.025053143706387 -13.911472773240078 -0.756727125502707 21.974946856293613
43.372974983625085 58.959080716385699 50.559763311906309 13.317813959503368 -1.513454251005413 -17.559763311906309
70.058873041560346 58.959080716385699 10.661607404126720 -13.368084098431893 -1.513454251005413 22.338392595873280
42.829586308816900 59.715807841888406 50.196317572326649 13.861202634311553 -2.270181376508120 -17.196317572326649
69.515484366752148 59.715807841888406 10.298161664547052 -12.824695423623695 -2.270181376508120 22.701838335452948
42.286197634008715 60.472534967391120 49.832871832746974 14.404591309119738 -3.026908502010834 -16.832871832746974
41.742808959200524 61.229262092893826 49.469426093167314 14.947979983927929 -3.783635627513540 -16.469426093167314
67.872750807595466 61.229262092893826 10.402481766799792 -11.181961864467013 -3.783635627513540 22.597518233200208
68.984663226676091 61.229262092893826 8.740058603975644 -12.293874283547638 -3.783635627513540 24.259941396024356
41.199420284392339 61.985989218396533 49.105980353587640 15.491368658736114 -4.540362753016247 -16.105980353587640
67.885318342327594 61.985989218396533 9.207824445808050 -11.194529399199141 -4.540362753016247 23.792175554191950
40.656031609584147 62.742716343899239 48.742534614007980 16.034757333544306 -5.297089878518953 -15.742534614007980
40.112642934775963 63.499443469401946 48.379088874428312 16.578146008352491 -6.053817004021660 -15.379088874428312
67.354497202251537 63.499443469401946 7.649721385236642 -10.663708259123084 -6.053817004021660 25.350278614763358
39.569254259967778 64.256170594904660 48.015643134848645 17.121534683160675 -6.810544129524374 -15.015643134848645
67.367064736983664 64.256170594904660 6.455064064244898 -10.676275793855211 -6.810544129524374 26.544935935755102
39.025865585159593 65.012897720407366 47.652197395268978 17.664923357968860 -7.567271255027080 -14.652197395268978
39.038433119891721 65.769624845910073 46.457540074277233 17.652355823236732 -8.323998380529787 -13.457540074277233
38.495044445083529 66.526351971412780 46.094094334697566 18.195744498044924 -9.080725506032493 -13.094094334697566
37.408267095467153 68.039806222418193 45.367202855538238 19.282521847661300 -10.594179757037907 -12.367202855538238
36.321489745850783 69.553260473423606 44.640311376378904 20.369299197277670 -12.107634008043320 -11.640311376378904
