ply 
format ascii 1.0 
element vertex 412
property double x 
property double y
property double z 
property double nx
property double ny
property double nz
end_header
-4.000000000000000 -30.529040343378448 25.383093507674840 4.000000000000000 30.529040343378448 -25.383093507674840
2.000000000000000 -30.529040343378448 25.383093507674840 -2.000000000000000 30.529040343378448 -25.383093507674840
3.000000000000000 -30.529040343378448 25.383093507674840 -3.000000000000000 30.529040343378448 -25.383093507674840
4.000000000000000 -30.529040343378448 25.383093507674840 -4.000000000000000 30.529040343378448 -25.383093507674840
5.000000000000000 -30.529040343378448 25.383093507674840 -5.000000000000000 30.529040343378448 -25.383093507674840
7.000000000000000 -30.529040343378448 25.383093507674840 -7.000000000000000 30.529040343378448 -25.383093507674840
8.000000000000000 -30.529040343378448 25.383093507674840 -8.000000000000000 30.529040343378448 -25.383093507674840
9.000000000000000 -30.529040343378448 25.383093507674840 -9.000000000000000 30.529040343378448 -25.383093507674840
10.000000000000000 -30.529040343378448 25.383093507674840 -10.000000000000000 30.529040343378448 -25.383093507674840
12.000000000000000 -30.529040343378448 25.383093507674840 -12.000000000000000 30.529040343378448 -25.383093507674840
-8.000000000000000 -29.544232590366242 25.209445330007910 8.000000000000000 29.544232590366242 -25.209445330007910
-7.000000000000000 -29.544232590366242 25.209445330007910 7.000000000000000 29.544232590366242 -25.209445330007910
-5.000000000000000 -29.544232590366242 25.209445330007910 5.000000000000000 29.544232590366242 -25.209445330007910
11.000000000000000 -29.544232590366242 25.209445330007910 -11.000000000000000 29.544232590366242 -25.209445330007910
12.000000000000000 -29.544232590366242 25.209445330007910 -12.000000000000000 29.544232590366242 -25.209445330007910
13.000000000000000 -29.544232590366242 25.209445330007910 -13.000000000000000 29.544232590366242 -25.209445330007910
15.000000000000000 -29.544232590366242 25.209445330007910 -15.000000000000000 29.544232590366242 -25.209445330007910
-9.000000000000000 -28.559424837354033 25.035797152340979 9.000000000000000 28.559424837354033 -25.035797152340979
-15.000000000000000 -27.574617084341824 24.862148974674049 15.000000000000000 27.574617084341824 -24.862148974674049
-14.000000000000000 -27.574617084341824 24.862148974674049 14.000000000000000 27.574617084341824 -24.862148974674049
-12.000000000000000 -27.574617084341824 24.862148974674049 12.000000000000000 27.574617084341824 -24.862148974674049
16.000000000000000 -27.574617084341824 24.862148974674049 -16.000000000000000 27.574617084341824 -24.862148974674049
17.000000000000000 -27.574617084341824 24.862148974674049 -17.000000000000000 27.574617084341824 -24.862148974674049
-16.000000000000000 -26.589809331329615 24.688500797007119 16.000000000000000 26.589809331329615 -24.688500797007119
-15.000000000000000 -26.589809331329615 24.688500797007119 15.000000000000000 26.589809331329615 -24.688500797007119
17.000000000000000 -26.589809331329615 24.688500797007119 -17.000000000000000 26.589809331329615 -24.688500797007119
18.000000000000000 -26.589809331329615 24.688500797007119 -18.000000000000000 26.589809331329615 -24.688500797007119
19.000000000000000 -25.605001578317410 24.514852619340189 -19.000000000000000 25.605001578317410 -24.514852619340189
20.000000000000000 -25.605001578317410 24.514852619340189 -20.000000000000000 25.605001578317410 -24.514852619340189
-17.000000000000000 -24.620193825305201 24.341204441673259 17.000000000000000 24.620193825305201 -24.341204441673259
-16.000000000000000 -24.620193825305201 24.341204441673259 16.000000000000000 24.620193825305201 -24.341204441673259
21.000000000000000 -24.620193825305201 24.341204441673259 -21.000000000000000 24.620193825305201 -24.341204441673259
22.000000000000000 -23.635386072292992 24.167556264006329 -22.000000000000000 23.635386072292992 -24.167556264006329
-20.000000000000000 -22.650578319280786 23.993908086339399 20.000000000000000 22.650578319280786 -23.993908086339399
-18.000000000000000 -22.650578319280786 23.993908086339399 18.000000000000000 22.650578319280786 -23.993908086339399
23.000000000000000 -22.650578319280786 23.993908086339399 -23.000000000000000 22.650578319280786 -23.993908086339399
-21.000000000000000 -20.680962813256368 23.646611731005535 21.000000000000000 20.680962813256368 -23.646611731005535
25.000000000000000 -20.680962813256368 23.646611731005535 -25.000000000000000 20.680962813256368 -23.646611731005535
-21.000000000000000 -19.696155060244159 23.472963553338605 21.000000000000000 19.696155060244159 -23.472963553338605
26.000000000000000 -19.696155060244159 23.472963553338605 -26.000000000000000 19.696155060244159 -23.472963553338605
-24.000000000000000 -18.711347307231954 23.299315375671675 24.000000000000000 18.711347307231954 -23.299315375671675
-23.000000000000000 -18.711347307231954 23.299315375671675 23.000000000000000 18.711347307231954 -23.299315375671675
27.000000000000000 -18.711347307231954 23.299315375671675 -27.000000000000000 18.711347307231954 -23.299315375671675
29.000000000000000 -18.711347307231954 23.299315375671675 -29.000000000000000 18.711347307231954 -23.299315375671675
27.000000000000000 -17.726539554219745 23.125667198004745 -27.000000000000000 17.726539554219745 -23.125667198004745
-25.000000000000000 -16.741731801207536 22.952019020337815 25.000000000000000 16.741731801207536 -22.952019020337815
-24.000000000000000 -16.741731801207536 22.952019020337815 24.000000000000000 16.741731801207536 -22.952019020337815
28.000000000000000 -16.741731801207536 22.952019020337815 -28.000000000000000 16.741731801207536 -22.952019020337815
29.000000000000000 -16.741731801207536 22.952019020337815 -29.000000000000000 16.741731801207536 -22.952019020337815
29.000000000000000 -15.756924048195328 22.778370842670885 -29.000000000000000 15.756924048195328 -22.778370842670885
-26.000000000000000 -14.772116295183121 22.604722665003955 26.000000000000000 14.772116295183121 -22.604722665003955
29.000000000000000 -14.772116295183121 22.604722665003955 -29.000000000000000 14.772116295183121 -22.604722665003955
-27.000000000000000 -13.787308542170912 22.431074487337025 27.000000000000000 13.787308542170912 -22.431074487337025
30.000000000000000 -13.787308542170912 22.431074487337025 -30.000000000000000 13.787308542170912 -22.431074487337025
31.000000000000000 -12.802500789158705 22.257426309670095 -31.000000000000000 12.802500789158705 -22.257426309670095
-28.000000000000000 -11.817693036146496 22.083778132003165 28.000000000000000 11.817693036146496 -22.083778132003165
31.000000000000000 -11.817693036146496 22.083778132003165 -31.000000000000000 11.817693036146496 -22.083778132003165
-28.000000000000000 -10.832885283134289 21.910129954336234 28.000000000000000 10.832885283134289 -21.910129954336234
32.000000000000000 -10.832885283134289 21.910129954336234 -32.000000000000000 10.832885283134289 -21.910129954336234
-28.000000000000000 -9.848077530122080 21.736481776669304 28.000000000000000 9.848077530122080 -21.736481776669304
32.000000000000000 -9.848077530122080 21.736481776669304 -32.000000000000000 9.848077530122080 -21.736481776669304
33.000000000000000 -9.848077530122080 21.736481776669304 -33.000000000000000 9.848077530122080 -21.736481776669304
32.000000000000000 -8.863269777109872 21.562833599002374 -32.000000000000000 8.863269777109872 -21.562833599002374
33.000000000000000 -8.863269777109872 21.562833599002374 -33.000000000000000 8.863269777109872 -21.562833599002374
-29.000000000000000 -7.878462024097664 21.389185421335444 29.000000000000000 7.878462024097664 -21.389185421335444
-28.000000000000000 -7.878462024097664 21.389185421335444 28.000000000000000 7.878462024097664 -21.389185421335444
-30.000000000000000 -6.893654271085456 21.215537243668514 30.000000000000000 6.893654271085456 -21.215537243668514
-29.000000000000000 -6.893654271085456 21.215537243668514 29.000000000000000 6.893654271085456 -21.215537243668514
33.000000000000000 -6.893654271085456 21.215537243668514 -33.000000000000000 6.893654271085456 -21.215537243668514
34.000000000000000 -5.908846518073248 21.041889066001580 -34.000000000000000 5.908846518073248 -21.041889066001580
-30.000000000000000 -4.924038765061040 20.868240888334650 30.000000000000000 4.924038765061040 -20.868240888334650
-30.000000000000000 -3.939231012048832 20.694592710667720 30.000000000000000 3.939231012048832 -20.694592710667720
33.000000000000000 -3.939231012048832 20.694592710667720 -33.000000000000000 3.939231012048832 -20.694592710667720
-30.000000000000000 -2.954423259036624 20.520944533000790 30.000000000000000 2.954423259036624 -20.520944533000790
33.000000000000000 -2.954423259036624 20.520944533000790 -33.000000000000000 2.954423259036624 -20.520944533000790
-30.000000000000000 -1.969615506024416 20.347296355333860 30.000000000000000 1.969615506024416 -20.347296355333860
33.000000000000000 -1.969615506024416 20.347296355333860 -33.000000000000000 1.969615506024416 -20.347296355333860
-30.000000000000000 -0.984807753012208 20.173648177666930 30.000000000000000 0.984807753012208 -20.173648177666930
33.000000000000000 -0.984807753012208 20.173648177666930 -33.000000000000000 0.984807753012208 -20.173648177666930
-30.000000000000000 0.000000000000000 20.000000000000000 30.000000000000000 -0.000000000000000 -20.000000000000000
33.000000000000000 0.000000000000000 20.000000000000000 -33.000000000000000 -0.000000000000000 -20.000000000000000
-30.000000000000000 0.984807753012208 19.826351822333070 30.000000000000000 -0.984807753012208 -19.826351822333070
33.000000000000000 0.984807753012208 19.826351822333070 -33.000000000000000 -0.984807753012208 -19.826351822333070
-29.000000000000000 1.969615506024416 19.652703644666140 29.000000000000000 -1.969615506024416 -19.652703644666140
32.000000000000000 1.969615506024416 19.652703644666140 -32.000000000000000 -1.969615506024416 -19.652703644666140
-30.000000000000000 2.954423259036624 19.479055466999210 30.000000000000000 -2.954423259036624 -19.479055466999210
-30.000000000000000 3.939231012048832 19.305407289332280 30.000000000000000 -3.939231012048832 -19.305407289332280
32.000000000000000 3.939231012048832 19.305407289332280 -32.000000000000000 -3.939231012048832 -19.305407289332280
-30.000000000000000 4.924038765061040 19.131759111665350 30.000000000000000 -4.924038765061040 -19.131759111665350
31.000000000000000 4.924038765061040 19.131759111665350 -31.000000000000000 -4.924038765061040 -19.131759111665350
-29.000000000000000 5.908846518073248 18.958110933998420 29.000000000000000 -5.908846518073248 -18.958110933998420
31.000000000000000 5.908846518073248 18.958110933998420 -31.000000000000000 -5.908846518073248 -18.958110933998420
-28.000000000000000 6.893654271085456 18.784462756331486 28.000000000000000 -6.893654271085456 -18.784462756331486
31.000000000000000 6.893654271085456 18.784462756331486 -31.000000000000000 -6.893654271085456 -18.784462756331486
-28.000000000000000 7.878462024097664 18.610814578664556 28.000000000000000 -7.878462024097664 -18.610814578664556
31.000000000000000 7.878462024097664 18.610814578664556 -31.000000000000000 -7.878462024097664 -18.610814578664556
-28.000000000000000 8.863269777109872 18.437166400997626 28.000000000000000 -8.863269777109872 -18.437166400997626
28.000000000000000 8.863269777109872 18.437166400997626 -28.000000000000000 -8.863269777109872 -18.437166400997626
30.000000000000000 8.863269777109872 18.437166400997626 -30.000000000000000 -8.863269777109872 -18.437166400997626
-28.000000000000000 9.848077530122080 18.263518223330696 28.000000000000000 -9.848077530122080 -18.263518223330696
29.000000000000000 9.848077530122080 18.263518223330696 -29.000000000000000 -9.848077530122080 -18.263518223330696
-28.000000000000000 10.832885283134289 18.089870045663766 28.000000000000000 -10.832885283134289 -18.089870045663766
-27.000000000000000 10.832885283134289 18.089870045663766 27.000000000000000 -10.832885283134289 -18.089870045663766
27.000000000000000 10.832885283134289 18.089870045663766 -27.000000000000000 -10.832885283134289 -18.089870045663766
29.000000000000000 10.832885283134289 18.089870045663766 -29.000000000000000 -10.832885283134289 -18.089870045663766
29.000000000000000 11.817693036146496 17.916221867996835 -29.000000000000000 -11.817693036146496 -17.916221867996835
-27.000000000000000 12.802500789158705 17.742573690329905 27.000000000000000 -12.802500789158705 -17.742573690329905
-26.000000000000000 12.802500789158705 17.742573690329905 26.000000000000000 -12.802500789158705 -17.742573690329905
27.000000000000000 12.802500789158705 17.742573690329905 -27.000000000000000 -12.802500789158705 -17.742573690329905
26.000000000000000 13.787308542170912 17.568925512662975 -26.000000000000000 -13.787308542170912 -17.568925512662975
26.000000000000000 14.772116295183121 17.395277334996045 -26.000000000000000 -14.772116295183121 -17.395277334996045
23.000000000000000 16.741731801207536 17.047980979662185 -23.000000000000000 -16.741731801207536 -17.047980979662185
24.000000000000000 17.726539554219745 16.874332801995255 -24.000000000000000 -17.726539554219745 -16.874332801995255
23.000000000000000 18.711347307231954 16.700684624328325 -23.000000000000000 -18.711347307231954 -16.700684624328325
22.000000000000000 19.696155060244159 16.527036446661395 -22.000000000000000 -19.696155060244159 -16.527036446661395
19.000000000000000 20.680962813256368 16.353388268994465 -19.000000000000000 -20.680962813256368 -16.353388268994465
20.000000000000000 20.680962813256368 16.353388268994465 -20.000000000000000 -20.680962813256368 -16.353388268994465
21.000000000000000 20.680962813256368 16.353388268994465 -21.000000000000000 -20.680962813256368 -16.353388268994465
-19.000000000000000 21.665770566268577 16.179740091327531 19.000000000000000 -21.665770566268577 -16.179740091327531
17.000000000000000 21.665770566268577 16.179740091327531 -17.000000000000000 -21.665770566268577 -16.179740091327531
18.000000000000000 21.665770566268577 16.179740091327531 -18.000000000000000 -21.665770566268577 -16.179740091327531
19.000000000000000 21.665770566268577 16.179740091327531 -19.000000000000000 -21.665770566268577 -16.179740091327531
-16.000000000000000 22.650578319280786 16.006091913660601 16.000000000000000 -22.650578319280786 -16.006091913660601
-12.000000000000000 22.650578319280786 16.006091913660601 12.000000000000000 -22.650578319280786 -16.006091913660601
17.000000000000000 22.650578319280786 16.006091913660601 -17.000000000000000 -22.650578319280786 -16.006091913660601
-20.000000000000000 23.635386072292992 15.832443735993671 20.000000000000000 -23.635386072292992 -15.832443735993671
-13.000000000000000 23.635386072292992 15.832443735993671 13.000000000000000 -23.635386072292992 -15.832443735993671
-10.000000000000000 23.635386072292992 15.832443735993671 10.000000000000000 -23.635386072292992 -15.832443735993671
14.000000000000000 23.635386072292992 15.832443735993671 -14.000000000000000 -23.635386072292992 -15.832443735993671
16.000000000000000 23.635386072292992 15.832443735993671 -16.000000000000000 -23.635386072292992 -15.832443735993671
-11.000000000000000 24.620193825305201 15.658795558326741 11.000000000000000 -24.620193825305201 -15.658795558326741
-10.000000000000000 24.620193825305201 15.658795558326741 10.000000000000000 -24.620193825305201 -15.658795558326741
-9.000000000000000 24.620193825305201 15.658795558326741 9.000000000000000 -24.620193825305201 -15.658795558326741
12.000000000000000 24.620193825305201 15.658795558326741 -12.000000000000000 -24.620193825305201 -15.658795558326741
13.000000000000000 24.620193825305201 15.658795558326741 -13.000000000000000 -24.620193825305201 -15.658795558326741
14.000000000000000 24.620193825305201 15.658795558326741 -14.000000000000000 -24.620193825305201 -15.658795558326741
-8.000000000000000 25.605001578317410 15.485147380659811 8.000000000000000 -25.605001578317410 -15.485147380659811
11.000000000000000 25.605001578317410 15.485147380659811 -11.000000000000000 -25.605001578317410 -15.485147380659811
13.000000000000000 25.605001578317410 15.485147380659811 -13.000000000000000 -25.605001578317410 -15.485147380659811
-7.000000000000000 26.589809331329615 15.311499202992881 7.000000000000000 -26.589809331329615 -15.311499202992881
-6.000000000000000 26.589809331329615 15.311499202992881 6.000000000000000 -26.589809331329615 -15.311499202992881
-4.000000000000000 26.589809331329615 15.311499202992881 4.000000000000000 -26.589809331329615 -15.311499202992881
9.000000000000000 26.589809331329615 15.311499202992881 -9.000000000000000 -26.589809331329615 -15.311499202992881
10.000000000000000 26.589809331329615 15.311499202992881 -10.000000000000000 -26.589809331329615 -15.311499202992881
-5.000000000000000 27.574617084341824 15.137851025325951 5.000000000000000 -27.574617084341824 -15.137851025325951
-4.000000000000000 27.574617084341824 15.137851025325951 4.000000000000000 -27.574617084341824 -15.137851025325951
-3.000000000000000 27.574617084341824 15.137851025325951 3.000000000000000 -27.574617084341824 -15.137851025325951
2.000000000000000 27.574617084341824 15.137851025325951 -2.000000000000000 -27.574617084341824 -15.137851025325951
4.000000000000000 27.574617084341824 15.137851025325951 -4.000000000000000 -27.574617084341824 -15.137851025325951
5.000000000000000 27.574617084341824 15.137851025325951 -5.000000000000000 -27.574617084341824 -15.137851025325951
6.000000000000000 27.574617084341824 15.137851025325951 -6.000000000000000 -27.574617084341824 -15.137851025325951
7.000000000000000 27.574617084341824 15.137851025325951 -7.000000000000000 -27.574617084341824 -15.137851025325951
8.000000000000000 27.574617084341824 15.137851025325951 -8.000000000000000 -27.574617084341824 -15.137851025325951
9.000000000000000 27.574617084341824 15.137851025325951 -9.000000000000000 -27.574617084341824 -15.137851025325951
-6.000000000000000 28.559424837354033 14.964202847659021 6.000000000000000 -28.559424837354033 -14.964202847659021
-3.000000000000000 28.559424837354033 14.964202847659021 3.000000000000000 -28.559424837354033 -14.964202847659021
-2.000000000000000 28.559424837354033 14.964202847659021 2.000000000000000 -28.559424837354033 -14.964202847659021
-1.000000000000000 28.559424837354033 14.964202847659021 1.000000000000000 -28.559424837354033 -14.964202847659021
0.000000000000000 28.559424837354033 14.964202847659021 -0.000000000000000 -28.559424837354033 -14.964202847659021
1.000000000000000 28.559424837354033 14.964202847659021 -1.000000000000000 -28.559424837354033 -14.964202847659021
3.000000000000000 28.559424837354033 14.964202847659021 -3.000000000000000 -28.559424837354033 -14.964202847659021
-1.000000000000000 -32.447411949610505 27.013772341240866 1.000000000000000 32.447411949610505 -27.013772341240866
0.000000000000000 -32.447411949610505 27.013772341240866 -0.000000000000000 32.447411949610505 -27.013772341240866
1.000000000000000 -32.447411949610505 27.013772341240866 -1.000000000000000 32.447411949610505 -27.013772341240866
2.000000000000000 -32.447411949610505 27.013772341240866 -2.000000000000000 32.447411949610505 -27.013772341240866
3.000000000000000 -32.447411949610505 27.013772341240866 -3.000000000000000 32.447411949610505 -27.013772341240866
-9.000000000000000 -31.464157042046548 26.831536815748720 9.000000000000000 31.464157042046548 -26.831536815748720
-4.000000000000000 -31.464157042046548 26.831536815748720 4.000000000000000 31.464157042046548 -26.831536815748720
-3.000000000000000 -31.464157042046548 26.831536815748720 3.000000000000000 31.464157042046548 -26.831536815748720
-2.000000000000000 -31.464157042046548 26.831536815748720 2.000000000000000 31.464157042046548 -26.831536815748720
4.000000000000000 -31.464157042046548 26.831536815748720 -4.000000000000000 31.464157042046548 -26.831536815748720
5.000000000000000 -31.464157042046548 26.831536815748720 -5.000000000000000 31.464157042046548 -26.831536815748720
6.000000000000000 -31.464157042046548 26.831536815748720 -6.000000000000000 31.464157042046548 -26.831536815748720
9.000000000000000 -31.464157042046548 26.831536815748720 -9.000000000000000 31.464157042046548 -26.831536815748720
-9.000000000000000 -30.480902134482594 26.649301290256574 9.000000000000000 30.480902134482594 -26.649301290256574
-8.000000000000000 -30.480902134482594 26.649301290256574 8.000000000000000 30.480902134482594 -26.649301290256574
-7.000000000000000 -30.480902134482594 26.649301290256574 7.000000000000000 30.480902134482594 -26.649301290256574
-6.000000000000000 -30.480902134482594 26.649301290256574 6.000000000000000 30.480902134482594 -26.649301290256574
-5.000000000000000 -30.480902134482594 26.649301290256574 5.000000000000000 30.480902134482594 -26.649301290256574
6.000000000000000 -30.480902134482594 26.649301290256574 -6.000000000000000 30.480902134482594 -26.649301290256574
8.000000000000000 -30.480902134482594 26.649301290256574 -8.000000000000000 30.480902134482594 -26.649301290256574
10.000000000000000 -30.480902134482594 26.649301290256574 -10.000000000000000 30.480902134482594 -26.649301290256574
-11.000000000000000 -29.497647226918637 26.467065764764424 11.000000000000000 29.497647226918637 -26.467065764764424
11.000000000000000 -29.497647226918637 26.467065764764424 -11.000000000000000 29.497647226918637 -26.467065764764424
12.000000000000000 -29.497647226918637 26.467065764764424 -12.000000000000000 29.497647226918637 -26.467065764764424
13.000000000000000 -29.497647226918637 26.467065764764424 -13.000000000000000 29.497647226918637 -26.467065764764424
-12.000000000000000 -28.514392319354684 26.284830239272278 12.000000000000000 28.514392319354684 -26.284830239272278
-10.000000000000000 -28.514392319354684 26.284830239272278 10.000000000000000 28.514392319354684 -26.284830239272278
14.000000000000000 -28.514392319354684 26.284830239272278 -14.000000000000000 28.514392319354684 -26.284830239272278
15.000000000000000 -28.514392319354684 26.284830239272278 -15.000000000000000 28.514392319354684 -26.284830239272278
17.000000000000000 -28.514392319354684 26.284830239272278 -17.000000000000000 28.514392319354684 -26.284830239272278
-13.000000000000000 -27.531137411790731 26.102594713780128 13.000000000000000 27.531137411790731 -26.102594713780128
-12.000000000000000 -27.531137411790731 26.102594713780128 12.000000000000000 27.531137411790731 -26.102594713780128
16.000000000000000 -27.531137411790731 26.102594713780128 -16.000000000000000 27.531137411790731 -26.102594713780128
18.000000000000000 -27.531137411790731 26.102594713780128 -18.000000000000000 27.531137411790731 -26.102594713780128
19.000000000000000 -27.531137411790731 26.102594713780128 -19.000000000000000 27.531137411790731 -26.102594713780128
-15.000000000000000 -26.547882504226774 25.920359188287982 15.000000000000000 26.547882504226774 -25.920359188287982
-14.000000000000000 -26.547882504226774 25.920359188287982 14.000000000000000 26.547882504226774 -25.920359188287982
17.000000000000000 -26.547882504226774 25.920359188287982 -17.000000000000000 26.547882504226774 -25.920359188287982
20.000000000000000 -26.547882504226774 25.920359188287982 -20.000000000000000 26.547882504226774 -25.920359188287982
-18.000000000000000 -25.564627596662820 25.738123662795836 18.000000000000000 25.564627596662820 -25.738123662795836
-17.000000000000000 -25.564627596662820 25.738123662795836 17.000000000000000 25.564627596662820 -25.738123662795836
-16.000000000000000 -25.564627596662820 25.738123662795836 16.000000000000000 25.564627596662820 -25.738123662795836
-15.000000000000000 -25.564627596662820 25.738123662795836 15.000000000000000 25.564627596662820 -25.738123662795836
19.000000000000000 -25.564627596662820 25.738123662795836 -19.000000000000000 25.564627596662820 -25.738123662795836
-19.000000000000000 -24.581372689098867 25.555888137303686 19.000000000000000 24.581372689098867 -25.555888137303686
-16.000000000000000 -24.581372689098867 25.555888137303686 16.000000000000000 24.581372689098867 -25.555888137303686
23.000000000000000 -24.581372689098867 25.555888137303686 -23.000000000000000 24.581372689098867 -25.555888137303686
23.000000000000000 -22.614862873970957 25.191417086319390 -23.000000000000000 22.614862873970957 -25.191417086319390
-22.000000000000000 -21.631607966407003 25.009181560827244 22.000000000000000 21.631607966407003 -25.009181560827244
24.000000000000000 -21.631607966407003 25.009181560827244 -24.000000000000000 21.631607966407003 -25.009181560827244
25.000000000000000 -20.648353058843046 24.826946035335098 -25.000000000000000 20.648353058843046 -24.826946035335098
26.000000000000000 -20.648353058843046 24.826946035335098 -26.000000000000000 20.648353058843046 -24.826946035335098
-23.000000000000000 -19.665098151279093 24.644710509842948 23.000000000000000 19.665098151279093 -24.644710509842948
26.000000000000000 -19.665098151279093 24.644710509842948 -26.000000000000000 19.665098151279093 -24.644710509842948
27.000000000000000 -19.665098151279093 24.644710509842948 -27.000000000000000 19.665098151279093 -24.644710509842948
-24.000000000000000 -18.681843243715139 24.462474984350802 24.000000000000000 18.681843243715139 -24.462474984350802
-23.000000000000000 -18.681843243715139 24.462474984350802 23.000000000000000 18.681843243715139 -24.462474984350802
27.000000000000000 -18.681843243715139 24.462474984350802 -27.000000000000000 18.681843243715139 -24.462474984350802
-24.000000000000000 -17.698588336151182 24.280239458858656 24.000000000000000 17.698588336151182 -24.280239458858656
27.000000000000000 -17.698588336151182 24.280239458858656 -27.000000000000000 17.698588336151182 -24.280239458858656
-26.000000000000000 -16.715333428587229 24.098003933366506 26.000000000000000 16.715333428587229 -24.098003933366506
28.000000000000000 -16.715333428587229 24.098003933366506 -28.000000000000000 16.715333428587229 -24.098003933366506
-27.000000000000000 -15.732078521023274 23.915768407874360 27.000000000000000 15.732078521023274 -23.915768407874360
-26.000000000000000 -15.732078521023274 23.915768407874360 26.000000000000000 15.732078521023274 -23.915768407874360
29.000000000000000 -15.732078521023274 23.915768407874360 -29.000000000000000 15.732078521023274 -23.915768407874360
29.000000000000000 -14.748823613459319 23.733532882382214 -29.000000000000000 14.748823613459319 -23.733532882382214
31.000000000000000 -13.765568705895365 23.551297356890064 -31.000000000000000 13.765568705895365 -23.551297356890064
31.000000000000000 -12.782313798331410 23.369061831397918 -31.000000000000000 12.782313798331410 -23.369061831397918
31.000000000000000 -11.799058890767455 23.186826305905768 -31.000000000000000 11.799058890767455 -23.186826305905768
32.000000000000000 -11.799058890767455 23.186826305905768 -32.000000000000000 11.799058890767455 -23.186826305905768
-29.000000000000000 -10.815803983203502 23.004590780413622 29.000000000000000 10.815803983203502 -23.004590780413622
31.000000000000000 -10.815803983203502 23.004590780413622 -31.000000000000000 10.815803983203502 -23.004590780413622
-28.000000000000000 -9.832549075639546 22.822355254921476 28.000000000000000 9.832549075639546 -22.822355254921476
32.000000000000000 -9.832549075639546 22.822355254921476 -32.000000000000000 9.832549075639546 -22.822355254921476
33.000000000000000 -9.832549075639546 22.822355254921476 -33.000000000000000 9.832549075639546 -22.822355254921476
-29.000000000000000 -8.849294168075591 22.640119729429326 29.000000000000000 8.849294168075591 -22.640119729429326
33.000000000000000 -8.849294168075591 22.640119729429326 -33.000000000000000 8.849294168075591 -22.640119729429326
-29.000000000000000 -7.866039260511637 22.457884203937180 29.000000000000000 7.866039260511637 -22.457884203937180
33.000000000000000 -7.866039260511637 22.457884203937180 -33.000000000000000 7.866039260511637 -22.457884203937180
33.000000000000000 -6.882784352947683 22.275648678445034 -33.000000000000000 6.882784352947683 -22.275648678445034
33.000000000000000 -5.899529445383727 22.093413152952884 -33.000000000000000 5.899529445383727 -22.093413152952884
-30.000000000000000 -4.916274537819773 21.911177627460738 30.000000000000000 4.916274537819773 -21.911177627460738
33.000000000000000 -4.916274537819773 21.911177627460738 -33.000000000000000 4.916274537819773 -21.911177627460738
-30.000000000000000 -3.933019630255818 21.728942101968588 30.000000000000000 3.933019630255818 -21.728942101968588
34.000000000000000 -3.933019630255818 21.728942101968588 -34.000000000000000 3.933019630255818 -21.728942101968588
-30.000000000000000 -2.949764722691864 21.546706576476442 30.000000000000000 2.949764722691864 -21.546706576476442
-30.000000000000000 -0.983254907563955 21.182235525492146 30.000000000000000 0.983254907563955 -21.182235525492146
34.000000000000000 -0.983254907563955 21.182235525492146 -34.000000000000000 0.983254907563955 -21.182235525492146
-31.000000000000000 0.000000000000000 21.000000000000000 31.000000000000000 -0.000000000000000 -21.000000000000000
34.000000000000000 0.000000000000000 21.000000000000000 -34.000000000000000 -0.000000000000000 -21.000000000000000
-31.000000000000000 0.983254907563955 20.817764474507854 31.000000000000000 -0.983254907563955 -20.817764474507854
33.000000000000000 0.983254907563955 20.817764474507854 -33.000000000000000 -0.983254907563955 -20.817764474507854
-30.000000000000000 1.966509815127909 20.635528949015704 30.000000000000000 -1.966509815127909 -20.635528949015704
33.000000000000000 1.966509815127909 20.635528949015704 -33.000000000000000 -1.966509815127909 -20.635528949015704
-30.000000000000000 2.949764722691864 20.453293423523558 30.000000000000000 -2.949764722691864 -20.453293423523558
33.000000000000000 2.949764722691864 20.453293423523558 -33.000000000000000 -2.949764722691864 -20.453293423523558
-30.000000000000000 3.933019630255818 20.271057898031412 30.000000000000000 -3.933019630255818 -20.271057898031412
31.000000000000000 3.933019630255818 20.271057898031412 -31.000000000000000 -3.933019630255818 -20.271057898031412
-29.000000000000000 4.916274537819773 20.088822372539262 29.000000000000000 -4.916274537819773 -20.088822372539262
32.000000000000000 4.916274537819773 20.088822372539262 -32.000000000000000 -4.916274537819773 -20.088822372539262
-29.000000000000000 5.899529445383727 19.906586847047116 29.000000000000000 -5.899529445383727 -19.906586847047116
31.000000000000000 5.899529445383727 19.906586847047116 -31.000000000000000 -5.899529445383727 -19.906586847047116
-29.000000000000000 6.882784352947683 19.724351321554966 29.000000000000000 -6.882784352947683 -19.724351321554966
31.000000000000000 6.882784352947683 19.724351321554966 -31.000000000000000 -6.882784352947683 -19.724351321554966
-28.000000000000000 7.866039260511637 19.542115796062820 28.000000000000000 -7.866039260511637 -19.542115796062820
31.000000000000000 7.866039260511637 19.542115796062820 -31.000000000000000 -7.866039260511637 -19.542115796062820
-29.000000000000000 8.849294168075591 19.359880270570674 29.000000000000000 -8.849294168075591 -19.359880270570674
-28.000000000000000 8.849294168075591 19.359880270570674 28.000000000000000 -8.849294168075591 -19.359880270570674
29.000000000000000 8.849294168075591 19.359880270570674 -29.000000000000000 -8.849294168075591 -19.359880270570674
-28.000000000000000 10.815803983203502 18.995409219586378 28.000000000000000 -10.815803983203502 -18.995409219586378
-27.000000000000000 10.815803983203502 18.995409219586378 27.000000000000000 -10.815803983203502 -18.995409219586378
27.000000000000000 10.815803983203502 18.995409219586378 -27.000000000000000 -10.815803983203502 -18.995409219586378
29.000000000000000 10.815803983203502 18.995409219586378 -29.000000000000000 -10.815803983203502 -18.995409219586378
29.000000000000000 11.799058890767455 18.813173694094232 -29.000000000000000 -11.799058890767455 -18.813173694094232
27.000000000000000 12.782313798331410 18.630938168602082 -27.000000000000000 -12.782313798331410 -18.630938168602082
26.000000000000000 14.748823613459319 18.266467117617786 -26.000000000000000 -14.748823613459319 -18.266467117617786
25.000000000000000 16.715333428587229 17.901996066633494 -25.000000000000000 -16.715333428587229 -17.901996066633494
23.000000000000000 17.698588336151182 17.719760541141344 -23.000000000000000 -17.698588336151182 -17.719760541141344
22.000000000000000 18.681843243715139 17.537525015649198 -22.000000000000000 -18.681843243715139 -17.537525015649198
21.000000000000000 19.665098151279093 17.355289490157052 -21.000000000000000 -19.665098151279093 -17.355289490157052
20.000000000000000 20.648353058843046 17.173053964664902 -20.000000000000000 -20.648353058843046 -17.173053964664902
17.000000000000000 22.614862873970957 16.808582913680610 -17.000000000000000 -22.614862873970957 -16.808582913680610
-17.000000000000000 23.598117781534910 16.626347388188460 17.000000000000000 -23.598117781534910 -16.626347388188460
15.000000000000000 23.598117781534910 16.626347388188460 -15.000000000000000 -23.598117781534910 -16.626347388188460
-24.000000000000000 24.581372689098867 16.444111862696314 24.000000000000000 -24.581372689098867 -16.444111862696314
14.000000000000000 24.581372689098867 16.444111862696314 -14.000000000000000 -24.581372689098867 -16.444111862696314
-17.000000000000000 25.564627596662820 16.261876337204164 17.000000000000000 -25.564627596662820 -16.261876337204164
12.000000000000000 25.564627596662820 16.261876337204164 -12.000000000000000 -25.564627596662820 -16.261876337204164
13.000000000000000 25.564627596662820 16.261876337204164 -13.000000000000000 -25.564627596662820 -16.261876337204164
14.000000000000000 25.564627596662820 16.261876337204164 -14.000000000000000 -25.564627596662820 -16.261876337204164
-15.000000000000000 26.547882504226774 16.079640811712018 15.000000000000000 -26.547882504226774 -16.079640811712018
10.000000000000000 26.547882504226774 16.079640811712018 -10.000000000000000 -26.547882504226774 -16.079640811712018
11.000000000000000 26.547882504226774 16.079640811712018 -11.000000000000000 -26.547882504226774 -16.079640811712018
-17.000000000000000 27.531137411790731 15.897405286219872 17.000000000000000 -27.531137411790731 -15.897405286219872
-16.000000000000000 27.531137411790731 15.897405286219872 16.000000000000000 -27.531137411790731 -15.897405286219872
-15.000000000000000 27.531137411790731 15.897405286219872 15.000000000000000 -27.531137411790731 -15.897405286219872
-13.000000000000000 27.531137411790731 15.897405286219872 13.000000000000000 -27.531137411790731 -15.897405286219872
7.000000000000000 27.531137411790731 15.897405286219872 -7.000000000000000 -27.531137411790731 -15.897405286219872
9.000000000000000 27.531137411790731 15.897405286219872 -9.000000000000000 -27.531137411790731 -15.897405286219872
-10.000000000000000 28.514392319354684 15.715169760727722 10.000000000000000 -28.514392319354684 -15.715169760727722
6.000000000000000 28.514392319354684 15.715169760727722 -6.000000000000000 -28.514392319354684 -15.715169760727722
8.000000000000000 28.514392319354684 15.715169760727722 -8.000000000000000 -28.514392319354684 -15.715169760727722
-8.000000000000000 29.497647226918637 15.532934235235576 8.000000000000000 -29.497647226918637 -15.532934235235576
-7.000000000000000 29.497647226918637 15.532934235235576 7.000000000000000 -29.497647226918637 -15.532934235235576
-6.000000000000000 29.497647226918637 15.532934235235576 6.000000000000000 -29.497647226918637 -15.532934235235576
-5.000000000000000 29.497647226918637 15.532934235235576 5.000000000000000 -29.497647226918637 -15.532934235235576
-4.000000000000000 29.497647226918637 15.532934235235576 4.000000000000000 -29.497647226918637 -15.532934235235576
-3.000000000000000 29.497647226918637 15.532934235235576 3.000000000000000 -29.497647226918637 -15.532934235235576
-2.000000000000000 29.497647226918637 15.532934235235576 2.000000000000000 -29.497647226918637 -15.532934235235576
-1.000000000000000 29.497647226918637 15.532934235235576 1.000000000000000 -29.497647226918637 -15.532934235235576
0.000000000000000 29.497647226918637 15.532934235235576 -0.000000000000000 -29.497647226918637 -15.532934235235576
1.000000000000000 29.497647226918637 15.532934235235576 -1.000000000000000 -29.497647226918637 -15.532934235235576
2.000000000000000 29.497647226918637 15.532934235235576 -2.000000000000000 -29.497647226918637 -15.532934235235576
3.000000000000000 29.497647226918637 15.532934235235576 -3.000000000000000 -29.497647226918637 -15.532934235235576
4.000000000000000 29.497647226918637 15.532934235235576 -4.000000000000000 -29.497647226918637 -15.532934235235576
5.000000000000000 29.497647226918637 15.532934235235576 -5.000000000000000 -29.497647226918637 -15.532934235235576
-2.000000000000000 -29.448815503429920 27.724269861296342 2.000000000000000 29.448815503429920 -27.724269861296342
-1.000000000000000 -29.448815503429920 27.724269861296342 1.000000000000000 29.448815503429920 -27.724269861296342
0.000000000000000 -29.448815503429920 27.724269861296342 -0.000000000000000 29.448815503429920 -27.724269861296342
1.000000000000000 -29.448815503429920 27.724269861296342 -1.000000000000000 29.448815503429920 -27.724269861296342
2.000000000000000 -29.448815503429920 27.724269861296342 -2.000000000000000 29.448815503429920 -27.724269861296342
3.000000000000000 -29.448815503429920 27.724269861296342 -3.000000000000000 29.448815503429920 -27.724269861296342
4.000000000000000 -29.448815503429920 27.724269861296342 -4.000000000000000 29.448815503429920 -27.724269861296342
5.000000000000000 -29.448815503429920 27.724269861296342 -5.000000000000000 29.448815503429920 -27.724269861296342
6.000000000000000 -29.448815503429920 27.724269861296342 -6.000000000000000 29.448815503429920 -27.724269861296342
7.000000000000000 -29.448815503429920 27.724269861296342 -7.000000000000000 29.448815503429920 -27.724269861296342
-9.000000000000000 -28.467188319982256 27.533460865919800 9.000000000000000 28.467188319982256 -27.533460865919800
-6.000000000000000 -28.467188319982256 27.533460865919800 6.000000000000000 28.467188319982256 -27.533460865919800
-5.000000000000000 -28.467188319982256 27.533460865919800 5.000000000000000 28.467188319982256 -27.533460865919800
-4.000000000000000 -28.467188319982256 27.533460865919800 4.000000000000000 28.467188319982256 -27.533460865919800
-3.000000000000000 -28.467188319982256 27.533460865919800 3.000000000000000 28.467188319982256 -27.533460865919800
8.000000000000000 -28.467188319982256 27.533460865919800 -8.000000000000000 28.467188319982256 -27.533460865919800
9.000000000000000 -28.467188319982256 27.533460865919800 -9.000000000000000 28.467188319982256 -27.533460865919800
10.000000000000000 -28.467188319982256 27.533460865919800 -10.000000000000000 28.467188319982256 -27.533460865919800
-11.000000000000000 -27.485561136534592 27.342651870543254 11.000000000000000 27.485561136534592 -27.342651870543254
-10.000000000000000 -27.485561136534592 27.342651870543254 10.000000000000000 27.485561136534592 -27.342651870543254
-9.000000000000000 -27.485561136534592 27.342651870543254 9.000000000000000 27.485561136534592 -27.342651870543254
-7.000000000000000 -27.485561136534592 27.342651870543254 7.000000000000000 27.485561136534592 -27.342651870543254
12.000000000000000 -27.485561136534592 27.342651870543254 -12.000000000000000 27.485561136534592 -27.342651870543254
13.000000000000000 -27.485561136534592 27.342651870543254 -13.000000000000000 27.485561136534592 -27.342651870543254
14.000000000000000 -27.485561136534592 27.342651870543254 -14.000000000000000 27.485561136534592 -27.342651870543254
15.000000000000000 -27.485561136534592 27.342651870543254 -15.000000000000000 27.485561136534592 -27.342651870543254
-14.000000000000000 -26.503933953086928 27.151842875166711 14.000000000000000 26.503933953086928 -27.151842875166711
-13.000000000000000 -26.503933953086928 27.151842875166711 13.000000000000000 26.503933953086928 -27.151842875166711
-12.000000000000000 -26.503933953086928 27.151842875166711 12.000000000000000 26.503933953086928 -27.151842875166711
-11.000000000000000 -26.503933953086928 27.151842875166711 11.000000000000000 26.503933953086928 -27.151842875166711
13.000000000000000 -26.503933953086928 27.151842875166711 -13.000000000000000 26.503933953086928 -27.151842875166711
-12.000000000000000 -25.522306769639265 26.961033879790165 12.000000000000000 25.522306769639265 -26.961033879790165
16.000000000000000 -25.522306769639265 26.961033879790165 -16.000000000000000 25.522306769639265 -26.961033879790165
18.000000000000000 -25.522306769639265 26.961033879790165 -18.000000000000000 25.522306769639265 -26.961033879790165
-15.000000000000000 -24.540679586191601 26.770224884413622 15.000000000000000 24.540679586191601 -26.770224884413622
17.000000000000000 -24.540679586191601 26.770224884413622 -17.000000000000000 24.540679586191601 -26.770224884413622
19.000000000000000 -24.540679586191601 26.770224884413622 -19.000000000000000 24.540679586191601 -26.770224884413622
20.000000000000000 -24.540679586191601 26.770224884413622 -20.000000000000000 24.540679586191601 -26.770224884413622
-17.000000000000000 -23.559052402743937 26.579415889037076 17.000000000000000 23.559052402743937 -26.579415889037076
-16.000000000000000 -23.559052402743937 26.579415889037076 16.000000000000000 23.559052402743937 -26.579415889037076
-15.000000000000000 -23.559052402743937 26.579415889037076 15.000000000000000 23.559052402743937 -26.579415889037076
20.000000000000000 -23.559052402743937 26.579415889037076 -20.000000000000000 23.559052402743937 -26.579415889037076
21.000000000000000 -23.559052402743937 26.579415889037076 -21.000000000000000 23.559052402743937 -26.579415889037076
-18.000000000000000 -22.577425219296270 26.388606893660530 18.000000000000000 22.577425219296270 -26.388606893660530
-17.000000000000000 -22.577425219296270 26.388606893660530 17.000000000000000 22.577425219296270 -26.388606893660530
21.000000000000000 -22.577425219296270 26.388606893660530 -21.000000000000000 22.577425219296270 -26.388606893660530
23.000000000000000 -22.577425219296270 26.388606893660530 -23.000000000000000 22.577425219296270 -26.388606893660530
-21.000000000000000 -20.614170852400942 26.006988902907441 21.000000000000000 20.614170852400942 -26.006988902907441
-20.000000000000000 -20.614170852400942 26.006988902907441 20.000000000000000 20.614170852400942 -26.006988902907441
25.000000000000000 -20.614170852400942 26.006988902907441 -25.000000000000000 20.614170852400942 -26.006988902907441
26.000000000000000 -19.632543668953279 25.816179907530895 -26.000000000000000 19.632543668953279 -25.816179907530895
-21.000000000000000 -18.650916485505615 25.625370912154352 21.000000000000000 18.650916485505615 -25.625370912154352
27.000000000000000 -18.650916485505615 25.625370912154352 -27.000000000000000 18.650916485505615 -25.625370912154352
-21.000000000000000 -17.669289302057951 25.434561916777806 21.000000000000000 17.669289302057951 -25.434561916777806
27.000000000000000 -17.669289302057951 25.434561916777806 -27.000000000000000 17.669289302057951 -25.434561916777806
-23.000000000000000 -16.687662118610287 25.243752921401260 23.000000000000000 16.687662118610287 -25.243752921401260
-22.000000000000000 -16.687662118610287 25.243752921401260 22.000000000000000 16.687662118610287 -25.243752921401260
-21.000000000000000 -16.687662118610287 25.243752921401260 21.000000000000000 16.687662118610287 -25.243752921401260
28.000000000000000 -16.687662118610287 25.243752921401260 -28.000000000000000 16.687662118610287 -25.243752921401260
29.000000000000000 -16.687662118610287 25.243752921401260 -29.000000000000000 16.687662118610287 -25.243752921401260
29.000000000000000 -15.706034935162624 25.052943926024717 -29.000000000000000 15.706034935162624 -25.052943926024717
-23.000000000000000 -14.724407751714960 24.862134930648171 23.000000000000000 14.724407751714960 -24.862134930648171
-22.000000000000000 -14.724407751714960 24.862134930648171 22.000000000000000 14.724407751714960 -24.862134930648171
29.000000000000000 -14.724407751714960 24.862134930648171 -29.000000000000000 14.724407751714960 -24.862134930648171
30.000000000000000 -13.742780568267296 24.671325935271629 -30.000000000000000 13.742780568267296 -24.671325935271629
31.000000000000000 -12.761153384819632 24.480516939895082 -31.000000000000000 12.761153384819632 -24.480516939895082
31.000000000000000 -11.779526201371969 24.289707944518536 -31.000000000000000 11.779526201371969 -24.289707944518536
-25.000000000000000 -10.797899017924303 24.098898949141994 25.000000000000000 10.797899017924303 -24.098898949141994
32.000000000000000 -10.797899017924303 24.098898949141994 -32.000000000000000 10.797899017924303 -24.098898949141994
-25.000000000000000 -9.816271834476639 23.908089953765447 25.000000000000000 9.816271834476639 -23.908089953765447
32.000000000000000 -9.816271834476639 23.908089953765447 -32.000000000000000 9.816271834476639 -23.908089953765447
-25.000000000000000 -8.834644651028976 23.717280958388905 25.000000000000000 8.834644651028976 -23.717280958388905
-25.000000000000000 -7.853017467581312 23.526471963012359 25.000000000000000 7.853017467581312 -23.526471963012359
33.000000000000000 -7.853017467581312 23.526471963012359 -33.000000000000000 7.853017467581312 -23.526471963012359
-25.000000000000000 -6.871390284133648 23.335662967635812 25.000000000000000 6.871390284133648 -23.335662967635812
34.000000000000000 -6.871390284133648 23.335662967635812 -34.000000000000000 6.871390284133648 -23.335662967635812
35.000000000000000 -5.889763100685984 23.144853972259270 -35.000000000000000 5.889763100685984 -23.144853972259270
-27.000000000000000 -4.908135917238320 22.954044976882724 27.000000000000000 4.908135917238320 -22.954044976882724
34.000000000000000 -4.908135917238320 22.954044976882724 -34.000000000000000 4.908135917238320 -22.954044976882724
-27.000000000000000 -3.926508733790656 22.763235981506178 27.000000000000000 3.926508733790656 -22.763235981506178
34.000000000000000 -3.926508733790656 22.763235981506178 -34.000000000000000 3.926508733790656 -22.763235981506178
-26.000000000000000 -2.944881550342992 22.572426986129635 26.000000000000000 2.944881550342992 -22.572426986129635
35.000000000000000 -2.944881550342992 22.572426986129635 -35.000000000000000 2.944881550342992 -22.572426986129635
-26.000000000000000 -1.963254366895328 22.381617990753089 26.000000000000000 1.963254366895328 -22.381617990753089
35.000000000000000 -1.963254366895328 22.381617990753089 -35.000000000000000 1.963254366895328 -22.381617990753089
-26.000000000000000 -0.981627183447664 22.190808995376546 26.000000000000000 0.981627183447664 -22.190808995376546
-27.000000000000000 0.000000000000000 22.000000000000000 27.000000000000000 -0.000000000000000 -22.000000000000000
-27.000000000000000 0.981627183447664 21.809191004623454 27.000000000000000 -0.981627183447664 -21.809191004623454
35.000000000000000 0.981627183447664 21.809191004623454 -35.000000000000000 -0.981627183447664 -21.809191004623454
-27.000000000000000 1.963254366895328 21.618382009246911 27.000000000000000 -1.963254366895328 -21.618382009246911
35.000000000000000 1.963254366895328 21.618382009246911 -35.000000000000000 -1.963254366895328 -21.618382009246911
35.000000000000000 2.944881550342992 21.427573013870365 -35.000000000000000 -2.944881550342992 -21.427573013870365
-26.000000000000000 3.926508733790656 21.236764018493822 26.000000000000000 -3.926508733790656 -21.236764018493822
35.000000000000000 3.926508733790656 21.236764018493822 -35.000000000000000 -3.926508733790656 -21.236764018493822
-26.000000000000000 4.908135917238320 21.045955023117276 26.000000000000000 -4.908135917238320 -21.045955023117276
